# .PCD v0.7 - Point Cloud Data file format
VERSION 0.7
FIELDS x y z intensity
SIZE 4 4 4 4
TYPE F F F F
COUNT 1 1 1 1
WIDTH 1396
HEIGHT 1
VIEWPOINT 0 0 0 1 0 0 0
POINTS 1396
DATA ascii
-4.2318888 5.5330806 -0.70494807 0
-12.305182 16.036423 0.26566479 0
-12.634841 16.435165 4.1703134 0
-6.082643 7.8825302 -0.65704346 0
-13.53034 17.503576 2.8493638 0
-4.2768788 5.5130682 -0.70492423 0
-12.355124 15.886414 0.26581511 0
-3.3464875 4.2933273 -0.74883342 0
-7.558208 9.6671238 -0.58862829 0
-11.934581 15.239237 2.9864018 0
-13.099768 16.671127 5.2851305 0
-12.454973 15.802316 1.2059069 0
-3.8016489 4.8082013 -0.72928762 0
-12.74023 16.08083 -0.2093356 0
-3.3914778 4.2733102 -0.75380957 0
-7.643177 9.5971031 -0.588552 0
-13.980318 17.518482 2.8793938 0
-13.214706 16.51609 5.2752924 0
-12.429863 15.492319 1.1912048 0
-12.734624 15.830081 4.0909095 0
-7.7081566 9.5520868 -0.58850205 0
-12.349619 15.263697 2.5564189 0
-12.379335 15.261021 4.9214268 0
-13.070091 16.066681 0.74571073 0
-12.289391 15.075075 3.9315972 0
-7.7431226 9.4670849 -0.58341622 0
-12.564682 15.323201 2.1163821 0
-12.549381 15.260525 4.4664431 0
-12.864985 15.591283 0.26615131 0
-3.4864514 4.2182856 -0.75374699 0
-6.3525438 7.6574626 -0.65679884 0
-13.820072 16.627968 2.2802408 0
-4.4868188 5.3830104 -0.70977759 0
-14.150404 16.920877 0.26498872 0
-13.209572 15.770003 4.1410141 0
-9.0585089 10.781869 -0.38456139 0
-15.720479 18.669336 4.2734499 0
-6.4275217 7.6074443 -0.65674305 0
-13.344735 15.763522 2.6760323 0
-12.669202 14.925934 4.9017797 0
-14.155238 16.636385 0.77026486 0
-3.9815869 4.6681519 -0.73413444 0
-9.2034922 10.756825 -0.38952294 0
-14.07492 16.41341 2.7904737 0
-14.319677 16.650976 5.4702697 0
-17.641361 20.461023 1.5219003 0
-4.5867839 5.3029852 -0.70969021 0
-18.056623 20.829651 0.26158348 0
-4.0315752 4.6431389 -0.73410523 0
-13.254886 15.220726 -0.20345181 0
-14.45977 16.574896 4.410357 0
-7.8429313 8.9670963 -0.56292212 0
-15.38011 17.544302 4.0995064 0
-5.4820724 6.2277179 -0.6954987 0
-13.424767 15.226607 0.73655915 0
-15.680028 17.740387 5.2943473 0
-13.544894 15.28564 -0.20848662 0
-13.504416 15.20942 3.6065843 0
-6.6324501 7.4423947 -0.65656316 0
-13.564523 15.198456 2.6466007 0
-5.5420556 6.1927037 -0.69545913 0
-14.179762 15.812868 2.2460654 0
-14.219403 15.820876 5.3060637 0
-13.969833 15.491463 0.75135565 0
-4.1315422 4.5681148 -0.73402286 0
-7.8978333 8.7121067 -0.54766989 0
-14.774706 16.269299 3.8756814 0
-14.074224 15.446355 5.736412 0
-13.799647 15.106989 1.2217114 0
-14.674507 16.030331 4.8859048 0
-13.719757 14.935611 -0.20313081 0
-13.264155 14.4144 3.4873307 0
-6.7774057 7.3423591 -0.65645242 0
-15.295134 16.516102 0.79049182 0
-4.1865187 4.5131021 -0.73396444 0
-8.5429401 9.1721439 -0.31305268 0
-3.7313588 4.0032272 -0.75351489 0
-6.8273864 7.297348 -0.65640402 0
-15.450106 16.461061 0.79056001 0
-4.2265096 4.4930868 -0.73894119 0
-14.063984 14.901783 6.1419387 0
-14.549588 15.377783 2.2415221 0
-4.8567019 5.1179142 -0.71448505 0
-14.1396 14.866435 0.74197674 0
-4.2614994 4.4680781 -0.73891354 0
-8.4678278 8.857193 -0.29775527 0
-13.089063 13.658045 2.0330451 0
-14.984339 15.590242 4.8613601 0
-9.523078 9.8774271 0.27135932 0
-14.879343 15.404725 4.3015294 0
-7.9526429 8.2021332 -0.52717113 0
-13.364082 13.757992 2.0579748 0
-4.9316783 5.062892 -0.71942472 0
-7.8875961 8.0671663 -0.51704693 0
-14.084207 14.378325 2.6174438 0
-16.199503 16.485746 5.7406111 0
-14.629623 14.840836 0.26704833 0
-16.239616 16.439631 4.6206594 0
-8.6627769 8.7421408 -0.30262533 0
-16.464718 16.594057 4.1055298 0
-7.042294 7.0723 -0.65616584 0
-14.614495 14.641324 0.74723977 0
-14.749068 14.745182 4.697155 0
-14.258625 14.217679 7.0676188 0
-4.3864546 4.3630495 -0.73880017 0
-13.759339 13.645229 -0.63687909 0
-14.484115 14.338729 3.1325207 0
-15.083916 14.896716 6.3470407 0
-16.094551 15.863535 3.4412003 0
-7.0722475 6.9473028 -0.6510421 0
-14.824224 14.543194 2.6923552 0
-15.599067 15.261196 5.976738 0
-14.914448 14.546253 0.75236034 0
-5.0716267 4.9378605 -0.71929049 0
-16.825054 16.325182 0.26582283 0
-15.759125 15.275649 5.4667387 0
-14.604417 14.110413 -0.20224825 0
-16.294369 15.714563 4.5313654 0
-14.049276 13.505155 -0.64171612 0
-3.9712765 3.8081663 -0.75830328 0
-7.9074125 7.5672102 -0.49156174 0
-14.308895 13.668724 3.0481515 0
-7.1421909 6.8022962 -0.64589536 0
-15.129153 14.383132 2.702539 0
-14.883789 14.110602 5.1277814 0
-15.399429 14.55613 0.75739694 0
-5.1515942 4.8578429 -0.7192055 0
-14.274238 13.425095 -0.64661551 0
-4.0312667 3.788147 -0.76327777 0
-8.1374207 7.6171331 -0.50658417 0
-14.573862 13.623682 3.0732319 0
-8.1224031 7.572145 -0.50153959 0
-16.84938 15.678944 4.0464702 0
-15.418638 14.312133 6.8326554 0
-16.104107 14.924524 4.4021292 0
-14.859264 13.730371 -0.20183501 0
-17.914545 16.529417 4.8557582 0
-14.439175 13.285066 -0.64644074 0
-4.0712452 3.7381418 -0.76321888 0
-6.2118368 5.6825376 -0.70988858 0
-20.500658 18.714745 0.90891254 0
-16.128963 14.695021 4.9023738 0
-18.75923 17.038078 8.8253727 0
-4.6113749 4.1779995 -0.74358726 0
-14.243979 12.875607 -0.17604598 0
-4.6213698 4.1679983 -0.74357522 0
-18.559278 16.701769 7.4256892 0
-14.989039 13.441281 0.73348975 0
-14.723534 13.180037 4.4687181 0
-15.339217 13.680255 -0.20670229 0
-14.748517 13.140032 4.4687638 0
-15.51833 13.788095 7.8232198 0
-5.3365355 4.7328057 -0.72404456 0
-15.88432 14.040082 -0.22198674 0
-15.643799 13.804005 3.6932232 0
-15.353431 13.51149 6.1334786 0
-15.848882 13.918494 3.2331374 0
-6.9069142 6.0424738 -0.58014822 0
-14.74364 12.883167 2.5540314 0
-5.3815165 4.6877942 -0.72899044 0
-15.508167 13.483562 8.2885351 0
-5.396512 4.6777911 -0.7289778 0
-18.644941 16.119186 -0.30369481 0
-18.624401 16.073719 4.306354 0
-8.6573267 7.4470043 -0.5263207 0
-18.744532 16.092552 3.1513524 0
-8.7123299 7.4619904 -0.52632725 0
-4.206182 3.5931242 -0.76304603 0
-6.4267468 5.4775004 -0.7146399 0
-16.04405 13.636036 0.75845969 0
-20.939693 17.759785 6.0999775 0
-15.003915 12.679981 -0.64571917 0
-4.781311 4.0329638 -0.75340891 0
-15.193945 12.789918 -0.65580213 0
-4.7913079 4.0279632 -0.75340188 0
-6.8117914 5.7075491 -0.55481589 0
-15.898658 13.293464 3.1787932 0
-6.466711 5.3875041 -0.70954049 0
-15.253591 12.687625 2.1193156 0
-16.798594 13.935404 5.4382715 0
-16.108988 13.325564 0.26879069 0
-16.718613 13.804884 4.8783937 0
-16.11902 13.270092 -0.21615094 0
-17.053724 14.019347 4.4282246 0
-15.16381 12.419965 -0.64542508 0
-16.13866 13.187944 2.7039392 0
-6.4666653 5.2675247 -0.69941676 0
-16.583796 13.482386 2.263705 0
-5.5814438 4.5227585 -0.73378801 0
-15.973897 12.910165 -0.20580307 0
-16.383598 13.213395 3.2289519 0
-6.4366307 5.1725502 -0.68932354 0
-19.044477 15.265269 0.83225179 0
-5.6314344 4.5027442 -0.73875964 0
-19.043455 15.20399 9.7823191 0
-15.498193 12.344885 4.4797063 0
-18.584379 14.754868 0.26770464 0
-4.9012485 3.8829515 -0.75323534 0
-15.648765 12.359843 -0.6602881 0
-17.403772 13.717745 2.8535907 0
-6.3665695 5.0026007 -0.66915965 0
-18.784416 14.714284 -0.28722313 0
-4.3811097 3.4230921 -0.772843 0
-6.6415992 5.1726789 -0.50929201 0
-20.514771 15.918733 -0.33819458 0
-17.163521 13.288784 3.8339946 0
-10.702531 8.261322 -0.67183983 0
-18.152988 13.984935 10.468434 0
-5.7613988 4.422718 -0.74365759 0
-15.318498 11.730441 -0.17969242 0
-21.494339 16.418365 4.7114468 0
-11.00756 8.3762226 -0.6919117 0
-17.403601 13.227742 2.8190925 0
-5.7713776 4.3677254 -0.73860002 0
-15.788545 11.920306 -0.1898163 0
-4.4510803 3.3530838 -0.77276087 0
-17.769026 13.349169 -0.76598024 0
-15.318012 11.488946 3.4155571 0
-11.252561 8.411149 -0.70691061 0
-15.668064 11.698915 3.485395 0
-11.287555 8.3961372 -0.71189034 0
-4.48107 3.3280795 -0.77273095 0
-16.16855 11.985209 -0.19482601 0
-15.082818 11.16484 4.2608509 0
-19.504143 14.400229 0.83320653 0
-18.918459 13.945244 5.8385854 0
-18.392826 13.524841 10.428939 0
-6.1664 4.5227394 -0.61869931 0
-18.417814 13.48984 10.433979 0
-6.8415265 4.9976449 -0.51408339 0
-26.395191 19.241367 4.0792937 0
-6.8815269 5.0026307 -0.51908267 0
-16.678305 12.102387 2.1901317 0
-17.012974 12.310743 5.7649689 0
-16.763508 12.085513 0.27015916 0
-15.837951 11.393882 3.4757299 0
-7.0265322 5.0325851 -0.52909231 0
-19.964134 14.259588 0.26841569 0
-15.792809 11.264787 4.395853 0
-16.413475 11.659722 -0.6694603 0
-16.062939 11.393856 3.5057623 0
-5.8712921 4.1477308 -0.73336148 0
-16.91844 11.910492 0.27035862 0
-20.638676 14.503987 5.0182657 0
-15.292555 10.710676 5.1563435 0
-17.183455 11.990424 0.27031586 0
-20.018642 13.932905 3.6937573 0
-6.1513057 4.2627873 -0.59843802 0
-17.113401 11.830455 0.27046764 0
-17.117861 11.815198 5.2004852 0
-19.61882 13.500269 0.8241353 0
-24.244114 16.649408 6.5166092 0
-16.69833 11.430133 -0.19918716 0
-4.6410055 3.1680522 -0.78254569 0
-7.7916026 5.3073168 -0.60426104 0
-16.972311 11.524288 9.4007616 0
-19.998262 13.540138 5.9891496 0
-18.318539 12.365132 0.27009729 0
-18.068039 12.174148 4.3752561 0
-8.1316433 5.4521928 -0.63936007 0
-7.0612907 4.7237601 0.67122579 0
-5.8362007 3.8927884 -0.70810914 0
-18.508512 12.315093 0.27017391 0
-18.14794 12.05464 4.9003873 0
-18.072622 11.972249 7.5954618 0
-17.347843 11.464187 4.1858702 0
-6.9863367 4.603035 -0.11366376 0
-4.7209792 3.1030376 -0.78746927 0
-16.08309 10.539947 -0.6233772 0
-18.373083 12.018109 3.3554561 0
-15.672373 10.220621 5.1718898 0
-18.458185 12.007103 2.3254781 0
-17.942757 11.635133 5.3357806 0
-6.9162111 4.473805 0.66145676 0
-18.222782 11.765127 5.4106884 0
-6.8861995 4.4338107 0.65649283 0
-5.7461295 3.6878538 -0.68291581 0
-18.148233 11.625717 0.77081668 0
-6.3362241 4.0527639 -0.60320103 0
-24.444126 15.596039 2.9726951 0
-8.6566448 5.5070338 -0.67934322 0
-16.842916 10.691509 1.2015756 0
-18.057575 11.446134 6.4009867 0
-18.713001 11.828066 3.380692 0
-18.172571 11.456133 6.4309912 0
-21.783543 13.702098 3.2742314 0
-16.292339 10.220595 5.3069735 0
-18.188196 11.365254 0.27108175 0
-5.4160442 3.3778729 -0.77265024 0
-20.532656 12.772993 9.069994 0
-18.617805 11.549074 4.3959565 0
-16.347927 10.104932 -0.6229068 0
-19.723066 12.16794 3.5254877 0
-5.661057 3.4779189 -0.65771759 0
-19.518404 11.954394 -0.25932977 0
-18.047667 11.034113 4.2563939 0
-16.392931 9.9795103 -1.0677766 0
-18.278097 11.08526 0.27137217 0
-5.6310334 3.4079425 -0.64765191 0
-18.313084 11.050256 0.27141145 0
-5.466012 3.2878718 -0.7725544 0
-19.613285 11.774896 0.27086112 0
-5.4610043 3.2678797 -0.76753521 0
-18.537374 11.07661 7.0064178 0
-4.8859067 2.9130194 -0.79225767 0
-22.303755 13.253582 -0.33025751 0
-5.4909997 3.2578704 -0.77252126 0
-17.212923 10.174702 -0.65786338 0
-4.865891 2.8680332 -0.78721583 0
-16.687862 9.8094492 -1.0825696 0
-26.448936 15.516414 3.848038 0
-5.5859838 3.2629826 -0.63251412 0
-19.978228 11.644828 0.27103719 0
-5.4709735 3.182893 -0.7624495 0
-17.142841 9.9297476 -0.65263009 0
-4.9458861 2.8580081 -0.79719555 0
-17.377165 10.01602 6.0223179 0
-26.253658 15.102815 5.243423 0
-18.642361 10.685552 5.8968172 0
-16.887564 9.6465683 1.1776184 0
-18.492432 10.534554 4.796946 0
-17.227743 9.7851849 -0.18747622 0
-5.4309378 3.0779276 -0.74735105 0
-17.097795 9.6493597 -1.1023597 0
-17.876814 10.064095 9.4023352 0
-5.4259262 3.0429375 -0.74231732 0
-17.477777 9.7646828 -0.6624254 0
-12.3016 6.8645129 2.9297829 0
-12.216402 6.7961521 4.634841 0
-4.9958549 2.7730081 -0.79710555 0
-17.532799 9.6892376 -1.1273447 0
-14.03184 7.7490244 2.9091301 0
-10.636707 5.8464022 -0.85442495 0
-21.937344 12.017962 9.3759184 0
-18.877346 10.319524 4.8472052 0
-17.812744 9.6946068 -0.67231512 0
-12.446562 6.7645001 2.9448991 0
-17.952749 9.7195702 -0.67732251 0
-5.0358357 2.7180011 -0.80204678 0
-10.826697 5.8313498 -0.86938679 0
-20.017654 10.757415 2.9269166 0
-5.7709188 3.0879536 -0.64231884 0
-10.801673 5.7563686 -0.86431658 0
-18.142418 9.6372414 2.187783 0
-19.517267 10.339993 5.5072641 0
-20.608007 10.874257 -0.26812837 0
-13.076572 6.8844519 3.0598583 0
-13.581471 7.1258326 4.6696849 0
-17.702314 9.2623272 2.1380961 0
-5.8108978 3.0279522 -0.64225543 0
-21.228039 11.019092 -0.28319523 0
-5.3058267 2.7480357 -0.70204329 0
-18.59774 9.5939598 -1.1921223 0
-21.352905 10.970116 0.82686806 0
-25.552914 13.099192 6.375298 0
-17.797588 9.0842543 -1.1217215 0
-22.723053 11.554789 0.86146235 0
-22.422815 11.351523 2.6166255 0
-18.426998 9.2999992 5.163146 0
-21.02284 10.564707 0.27222246 0
-5.2607903 2.6380727 -0.68694162 0
-18.542631 9.2540236 -1.1767988 0
-17.757036 8.8536606 3.5335007 0
-19.031965 9.4504795 5.8380718 0
-19.48768 9.6241884 -0.74204659 0
-5.1107664 2.5180154 -0.79684317 0
-5.6308117 2.7630596 -0.60201943 0
-18.921906 9.235467 5.783267 0
-21.152798 10.274199 -0.27248165 0
-5.1107512 2.4730253 -0.79179966 0
-5.2107491 2.5131128 -0.6718266 0
-12.891295 6.1901135 3.6655109 0
-19.352606 9.2338066 -1.2266855 0
-18.366983 8.7536087 3.6186678 0
-12.761261 6.0551109 3.6206257 0
-21.462799 10.128624 -0.83230615 0
-14.406529 6.7939939 2.8901026 0
-13.511278 6.3404388 4.1804371 0
-19.712538 9.2041883 -0.74161553 0
-19.872135 9.2529764 3.3533583 0
-13.501363 6.2544193 3.0805178 0
-19.662546 9.0687475 -1.2414914 0
-11.450779 5.2679191 6.2412362 0
-14.186411 6.4943681 3.2153647 0
-5.1906996 2.3631494 -0.65668464 0
-13.846245 6.2754345 4.255537 0
-38.104729 17.173473 -1.6821946 0
-13.841343 6.2293944 3.1355798 0
-13.931305 6.2347322 3.5205848 0
-5.2006826 2.3131537 -0.65663564 0
-5.2056785 2.2981541 -0.65662086 0
-18.811674 8.2699642 5.1441813 0
-14.21676 6.2103057 -1.1693624 0
-38.119446 16.579456 -0.69662511 0
-11.715748 5.0775995 5.9614468 0
-5.3056741 2.288121 -0.67160034 0
-8.4110317 3.6071944 -0.79251742 0
-12.595897 5.3867211 5.2612486 0
-11.860696 5.0479507 6.3764911 0
-10.745484 4.5540051 7.1968403 0
-4.9856286 2.0981469 -0.74145448 0
-19.556673 8.1844597 4.7793436 0
-6.3257613 2.6328509 -0.68681729 0
-6.3507576 2.6228466 -0.68680525 0
-14.39112 5.9204202 4.3509345 0
-11.320546 4.6484733 6.7818122 0
-11.300537 4.6084652 6.7668476 0
-4.9455981 2.0031817 -0.7263689 0
-5.5706577 2.2430391 -0.70652914 0
-11.985585 4.7982807 6.756741 0
-5.5556464 2.2080514 -0.70149779 0
-5.5606432 2.1980522 -0.70148778 0
-6.4557285 2.5328269 -0.69670916 0
-9.5910635 3.741806 -0.92751908 0
-15.066634 5.8451138 -1.2339257 0
-38.208782 14.745543 0.27012002 0
-13.671263 5.2475076 0.96149182 0
-5.6406302 2.1580317 -0.71144176 0
-37.748856 14.363947 -1.6145705 0
-12.610693 4.7820086 5.541821 0
-4.8705459 1.8382425 -0.70122147 0
-5.6556182 2.1180334 -0.71140277 0
-14.456465 5.3906956 -0.8035624 0
-12.785676 4.7470241 5.6018715 0
-4.8455305 1.7882586 -0.69617724 0
-14.071404 5.1758308 -0.77340078 0
-11.355932 4.1635342 1.407269 0
-14.411041 5.2593727 3.1665576 0
-14.465965 5.2500558 3.921572 0
-15.965851 5.7670054 6.4562435 0
-13.29047 4.7839112 7.78689 0
-14.241411 5.0954747 -1.1333088 0
-12.340501 4.4079509 6.4771433 0
-14.275991 5.069387 3.1317208 0
-14.756407 5.2056422 -0.81835938 0
-11.5659 4.068512 1.4223788 0
-5.7055807 1.9980352 -0.71628571 0
-13.871236 4.8315682 -0.06310001 0
-10.540803 3.6536806 1.3176613 0
-14.445857 4.9904056 4.2768116 0
-12.225899 4.2136879 1.7873101 0
-14.410846 4.9454083 4.26685 0
-10.510787 3.593689 1.312714 0
-10.380993 3.5316012 -1.0022424 0
-12.665492 4.2976532 6.2322779 0
-6.8506589 2.3127377 -0.73646355 0
-14.106141 4.7471566 0.62200201 0
-5.8555703 1.9629906 -0.73623836 0
-14.331182 4.7817879 0.27699193 0
-5.875567 1.9529876 -0.73622715 0
-13.696118 4.536952 0.27715567 0
-5.8755627 1.9379896 -0.73621321 0
-14.101174 4.6315393 -0.067892075 0
-15.970991 5.2342782 3.4417365 0
-13.916245 4.5306573 -1.0878177 0
-14.850525 4.8230233 7.2270079 0
-7.1456571 2.3076408 -0.77642989 0
-14.036075 4.5121932 0.61721194 0
-5.8655443 1.8780046 -0.73115897 0
-13.776138 4.3863354 -0.39769807 0
-11.595789 3.6785355 1.4127421 0
-13.786194 4.3557215 -1.0726693 0
-10.815702 3.408906 1.6029146 0
-14.181188 4.4509101 -0.76271832 0
-14.220295 4.4544826 8.6472855 0
-7.3906536 2.2975597 -0.81139696 0
-14.071093 4.3515844 -0.062637448 0
-11.030694 3.393883 1.627949 0
-13.911165 4.2606988 -1.08257 0
-10.440673 3.1887317 1.2980802 0
-16.845854 5.1200104 4.4469271 0
-15.125489 4.5726519 6.877264 0
-7.4456377 2.2425513 -0.81634128 0
-14.130558 4.2364306 5.2624764 0
-11.320606 3.3846152 2.5029855 0
-13.901062 4.1263428 -0.39744774 0
-10.36064 3.0637527 1.2881869 0
-14.43116 4.2455525 -1.1275065 0
-15.031029 4.3970175 0.6424129 0
-7.5606256 2.2025237 -0.82629383 0
-13.970977 4.0519509 0.27762705 0
-5.9204946 1.7080166 -0.73099804 0
-14.301055 4.1062431 -0.41739157 0
-14.525249 4.1641145 8.3125801 0
-11.855942 3.371172 -1.1619532 0
-16.380365 4.6486835 8.3373146 0
-7.6406112 2.1525052 -0.83624065 0
-13.470396 3.7820454 5.7428284 0
-16.670816 4.6592612 3.5373297 0
-13.910957 3.8666821 -0.057210267 0
-11.460166 3.1733153 6.5981932 0
-14.155995 3.8963094 -0.40721443 0
-10.370557 2.8439951 1.5333878 0
-13.751018 3.7458284 -1.052116 0
-12.550305 3.4072454 5.7080817 0
-12.285927 3.3160453 -1.211863 0
-12.470264 3.362556 6.0281153 0
-12.350924 3.3060288 -1.2168479 0
-13.880879 3.6970131 0.27794072 0
-5.350421 1.4181435 -0.7657882 0
-14.096007 3.7107351 -1.0820525 0
-16.690893 4.3777943 1.8875856 0
-12.870938 3.3558607 -1.276845 0
-40.067146 10.409163 4.134295 0
-14.281001 3.6906857 -1.0970173 0
-10.755531 2.7739553 1.5734866 0
-14.460974 3.7059448 -0.76701438 0
-13.220736 3.3677657 0.91317725 0
-13.160933 3.3357718 -1.3118004 0
-13.345735 3.3677435 0.91818869 0
-7.9805694 2.0024199 -0.8760736 0
-14.025794 3.507308 0.61312509 0
-7.9705639 1.982425 -0.87605655 0
-15.610373 3.8669071 6.1329489 0
-5.2903876 1.3031906 -0.74569023 0
-14.330855 3.5066297 -0.066846818 0
-11.095458 2.7044115 2.1535804 0
-19.625637 4.750433 5.56252 0
-12.095625 2.9080079 0.85848784 0
-13.915901 3.3308463 -1.0567273 0
-11.960611 2.8530388 0.8535248 0
-19.120644 4.5399947 4.932663 0
-14.375821 3.3816359 -0.066730827 0
-5.2403665 1.2282207 -0.73562753 0
-15.415906 3.5910361 -0.46182469 0
-5.2403636 1.2182225 -0.73561859 0
-15.340826 3.5417242 0.2782129 0
-18.755638 4.3195853 4.3678265 0
-15.555829 3.5566771 0.27821881 0
-11.525403 2.6246381 2.5036905 0
-18.125341 4.1071463 7.0429606 0
-6.2354097 1.4029592 -0.77069438 0
-14.700795 3.2915754 -0.071621418 0
-5.2603517 1.1732248 -0.73557675 0
-18.210323 4.0421538 7.0680261 0
-18.445583 4.0746069 4.2930169 0
-15.340185 3.3726313 6.838366 0
-13.445823 2.9357517 -1.331417 0
-15.355177 3.3426344 6.8433943 0
-8.4705248 1.8322854 -0.94087768 0
-13.765709 2.9518366 -0.046402425 0
-5.2403359 1.1182413 -0.73052967 0
-14.585774 3.0913153 -0.41645381 0
-11.595432 2.4438889 1.6638569 0
-15.800272 3.3215411 5.7334518 0
-10.700368 2.234237 1.8139638 0
-15.645223 3.2519026 6.0935001 0
-6.3703871 1.3179264 -0.79060698 0
-13.740646 2.8271496 0.27870587 0
-8.890523 1.8171513 -0.9958272 0
-14.01062 2.8473852 0.60871184 0
-15.960358 3.2354465 4.5435414 0
-14.935078 3.0129437 7.0636492 0
-15.980275 3.2061779 5.3635697 0
-5.3253217 1.0632186 -0.7454735 0
-16.430199 3.266978 6.3735552 0
-9.0255146 1.7821106 -1.0157844 0
-13.990594 2.7474015 0.60879833 0
-13.395737 2.6158211 -1.3161383 0
-12.255011 2.3927953 6.1889615 0
-14.095738 2.7258894 -1.0611742 0
-10.909972 2.1028163 5.8590999 0
-14.030697 2.6812127 -0.72114038 0
-16.005554 3.0430048 1.7987137 0
-16.255236 3.0761991 5.4437079 0
-5.375309 1.0132115 -0.7504251 0
-15.775668 2.9517064 0.27877355 0
-13.455708 2.5058205 -1.3210363 0
-15.979984 2.9685242 7.9737797 0
-16.275219 3.0061998 5.4437714 0
-16.195396 2.9743817 3.3837914 0
-16.280605 2.9822843 1.0487906 0
-14.310708 2.6058488 -1.0760502 0
-10.265284 1.8643054 1.7442516 0
-16.255127 2.9369626 6.2888308 0
-15.390326 2.7647719 3.6039057 0
-12.904996 2.3075867 6.1140928 0
-13.750691 2.4357386 -1.3559494 0
-16.10047 2.843354 2.1888971 0
-15.740686 2.7610743 -0.46606264 0
-5.400291 0.94321221 -0.75536156 0
-16.18063 2.8066399 0.27893555 0
-6.6453433 1.1428592 -0.8304292 0
-16.075584 2.7570069 0.65896994 0
-19.530334 3.3300459 4.9737682 0
-16.045441 2.7233696 2.1789973 0
-16.200712 2.7256224 -0.8709923 0
-16.075434 2.6933711 2.184026 0
-16.105665 2.6759961 -0.48095706 0
-15.865353 2.6290762 2.9190643 0
-14.49009 2.3814538 5.2391639 0
-15.705307 2.5694327 3.279103 0
-14.195015 2.3071055 5.8942037 0
-19.510334 3.1446269 4.4789276 0
-16.095539 2.5770247 0.65912843 0
-9.5854502 1.5219711 -1.0855086 0
-14.014968 2.2174256 6.2042665 0
-9.6254473 1.5069607 -1.0904921 0
-16.170523 2.5120168 0.65919137 0
-6.7553186 1.0428386 -0.84533274 0
-14.019987 2.152087 5.8193235 0
-6.7303128 1.0228511 -0.84031761 0
-14.044979 2.1220875 5.8243518 0
-5.4402571 0.81322336 -0.75524497 0
-14.159971 2.1071033 5.8693743 0
-12.724741 1.8792382 7.909451 0
-15.47059 2.2508886 -0.815642 0
-13.65486 1.978054 6.8094435 0
-16.205238 2.3144252 3.3643668 0
-15.425604 2.1805899 -1.1755854 0
-15.964864 2.2431073 7.4594092 0
-16.235222 2.2494297 3.3694253 0
-15.720533 2.151165 -0.4605349 0
-9.6401587 1.3094058 1.6446806 0
-16.265171 2.1847835 3.7694836 0
-12.539986 1.6663222 4.5546179 0
-11.530158 1.5194646 2.1896582 0
-15.445592 2.0052881 -1.5404328 0
-15.435458 1.9765838 -0.080408514 0
-5.5402303 0.70320618 -0.77014172 0
-17.615038 2.215904 5.3695707 0
-10.970178 1.3690517 1.5697404 0
-10.205387 1.2518126 -1.1652234 0
-15.855476 1.9211638 -0.46532604 0
-5.600224 0.67318517 -0.78511107 0
-5.6302223 0.66317594 -0.79009998 0
-14.735514 1.7105528 -1.4552392 0
-15.84042 1.8165119 -0.090237737 0
-14.970119 1.7045317 3.1197872 0
-16.205053 1.8151608 4.1447954 0
-15.585457 1.7109406 -0.81516898 0
-46.99065 5.124763 5.7995219 0
-6.9852471 0.74780893 -0.87505996 0
-13.044966 1.3807813 4.0399041 0
-47.080605 4.9197707 5.8047042 0
-5.6452012 0.57818604 -0.79002631 0
-15.980046 1.6098318 3.6949515 0
-17.615007 1.7351573 4.4749808 0
-13.629787 1.3273804 5.9999981 0
-15.880031 1.5298387 3.6700113 0
-20.080559 1.8892931 -1.5999498 0
-15.635362 1.4412886 -0.4499357 0
-14.595041 1.3345768 3.0400708 0
-15.905006 1.4248475 3.6751022 0
-10.600311 0.9217366 -1.2149098 0
-14.309961 1.2202135 3.6851442 0
-16.105433 1.3301916 -1.6098033 0
-11.035307 0.88660246 -1.2748445 0
-11.345311 0.88650054 -1.3198192 0
-11.250301 0.85153967 -1.3047975 0
-16.0954 1.1902279 -1.6046866 0
-16.509737 1.2020322 6.3053398 0
-12.110048 0.85898292 1.7002667 0
-12.829946 0.88997054 3.0153005 0
-15.629736 1.0669434 5.980381 0
-16.18461 1.0731448 7.500421 0
-11.275272 0.73155624 -1.3096954 0
-15.609721 0.99694622 5.9754381 0
-13.149575 0.82361358 7.2853827 0
-16.60487 1.0052117 4.2205114 0
-10.740077 0.63849741 0.78033888 0
-13.604912 0.79495531 3.1754422 0
-20.06538 1.1294426 -1.5943143 0
-16.184784 0.880925 4.9305801 0
-16.524706 0.87166667 5.8706155 0
-10.755056 0.54350817 0.78041852 0
-13.71494 0.67439377 2.5355492 0
-13.669907 0.6446836 2.8605711 0
-16.165295 0.73030001 -1.6143003 0
-14.074565 0.6231243 6.9506221 0
-14.55458 0.61286348 6.7656689 0
-15.544359 0.63501298 9.5107298 0
-14.314734 0.56118321 4.7506914 0
-4.8349833 0.17973727 0.7302407 0
-16.135262 0.58534014 -1.6091844 0
-16.704643 0.58169484 5.9308667 0
-13.909894 0.46940142 2.5657318 0
-7.515132 0.23273136 -0.95458794 0
-20.360266 0.60446572 -1.618862 0
-4.7450013 0.13447027 0.39027002 0
-4.7849731 0.12974967 0.72527689 0
-5.9051042 0.14818181 -0.83464861 0
-20.235235 0.4695276 -1.6087636 0
-4.9349957 0.10943928 0.39530519 0
-7.9301219 0.16260292 -1.0244986 0
-20.065212 0.369598 -1.5886967 0
-16.889437 0.29826391 7.8011093 0
-13.414798 0.22000898 3.1308942 0
-4.6850057 0.069304295 0.17031746 0
-15.104796 0.20965682 3.1260374 0
-13.994668 0.17618227 4.6459756 0
-4.7549582 0.054764438 0.72533453 0
-13.969663 0.14618498 4.6409974 0
-4.7399549 0.039764505 0.72034544 0
-4.765017 0.039101671 -0.054652274 0
-4.6699796 0.029500339 0.39034784 0
-4.7150316 0.023931492 -0.26964411 0
-14.649506 0.062541448 6.4011178 0
-7.9200912 0.022639357 -1.0193881 0
-17.044529 0.03174616 6.0413332 0
-4.7199645 -0.00041255628 0.50037539 0
-12.88481 -0.020479074 2.3960407 0
-16.514627 -0.054353975 4.6063581 0
-13.434636 -0.068836831 4.4711242 0
-4.7049417 -0.030219881 0.72039753 0
-8.1250744 -0.067413032 -1.0543011 0
-20.085091 -0.20029467 -1.5932455 0
-13.309649 -0.15912201 4.0961847 0
-13.479473 -0.17731273 6.2862124 0
-4.6849341 -0.070215255 0.71542704 0
-8.1700602 -0.14241506 -1.064239 0
-13.399603 -0.24882372 4.4662619 0
-13.509458 -0.26730934 6.2962842 0
-18.43441 -0.4181183 6.5117941 0
-18.5144 -0.45810711 6.5418315 0
-13.744402 -0.36194548 6.7863765 0
-6.1300387 -0.17182834 -0.87437928 0
-15.994622 -0.4799895 3.6816466 0
-17.169523 -0.54930627 4.776794 0
-12.914633 -0.43938676 3.6613691 0
-19.609983 -0.72005594 -1.5478827 0
-19.619974 -0.76504928 -1.5478476 0
-15.779997 -0.64929342 -1.5632434 0
-12.620012 -0.54860419 -1.493573 0
-8.4400139 -0.38745493 -1.1090301 0
-15.22435 -0.73734719 6.6517797 0
-51.054649 -2.6516142 -2.0988996 0
-12.689984 -0.69359636 -1.503458 0
-6.0400028 -0.34675986 -0.85925376 0
-6.045001 -0.35675791 -0.85924613 0
-14.889593 -0.91021532 3.0918827 0
-14.374575 -0.90990603 3.3418407 0
-42.529579 -2.8644938 -1.7044296 0
-12.709947 -0.89356256 -1.5083075 0
-6.2799854 -0.4568226 -0.90415263 0
-19.739834 -1.5099369 -1.5622817 0
-8.7599602 -0.69250059 -1.1637775 0
-15.699872 -1.3091369 -1.5577588 0
-8.9699478 -0.77255648 -1.1987015 0
-6.1849675 -0.54677099 -0.88909447 0
-15.214422 -1.3992611 4.2822685 0
-41.449379 -3.9940202 -1.6536924 0
-9.019927 -0.8925482 -1.2086109 0
-19.804739 -2.0448563 -1.5768882 0
-6.2599478 -0.66177315 -0.90400577 0
-19.779716 -2.1748211 -1.5717976 0
-6.2899394 -0.71177763 -0.91396725 0
-12.564842 -1.4684019 -1.4979041 0
-19.614681 -2.3747387 -1.5616699 0
-6.4249268 -0.79680729 -0.93889594 0
-19.624659 -2.5097148 -1.5615741 0
-9.2148752 -1.2025511 -1.2433746 0
-15.469737 -2.0839179 -1.542226 0
-40.964096 -5.6835976 -1.6425395 0
-9.3698559 -1.3275808 -1.2732744 0
-15.304712 -2.2338409 -1.5271363 0
-40.404034 -6.058393 -1.6173297 0
-9.4598379 -1.4475902 -1.2931842 0
-19.464571 -3.0595694 -1.5562081 0
-9.4048281 -1.5025587 -1.2831516 0
-19.524549 -3.1995575 -1.5611081 0
-6.2948837 -1.0517091 -0.91873145 0
-12.494734 -2.1382475 -1.4974478 0
-34.289104 -6.0075569 -2.1479027 0
-9.6447983 -1.7175996 -1.327985 0
-15.244628 -2.7787187 -1.5267727 0
-39.623837 -7.3879704 -1.591502 0
-9.5997829 -1.8175647 -1.3229229 0
-19.414469 -3.7544265 -1.5607477 0
-6.2598567 -1.2316635 -0.91861475 0
-15.049593 -3.0186181 -1.5116322 0
-6.3148494 -1.2866752 -0.9335736 0
-15.144576 -3.143625 -1.5265417 0
-40.453674 -8.5629683 -1.6406558 0
-12.369659 -2.6531146 -1.4971203 0
-42.243443 -9.2167273 0.28993306 0
-40.443623 -8.9378996 -1.640415 0
-19.854374 -4.4344296 -1.6152651 0
-9.6697302 -2.1925213 -1.3476721 0
-41.97839 -9.6466045 0.29018283 0
-15.014528 -3.4985232 -1.5213263 0
-40.578533 -9.6278152 -1.6549628 0
-12.23462 -2.9380205 -1.4869512 0
-19.814322 -4.844348 -1.6200087 0
-6.4348087 -1.591663 -0.96836758 0
-12.089607 -3.0429528 -1.4669001 0
-19.759295 -5.0642948 -1.6198767 0
-6.3598013 -1.6516275 -0.95833719 0
-12.059591 -3.1779194 -1.4668194 0
-19.754265 -5.2942538 -1.6247355 0
-9.5646782 -2.5924153 -1.3474329 0
-19.424261 -5.3391528 -1.5947427 0
-6.4197845 -1.7866234 -0.9732486 0
-11.944567 -3.377852 -1.4617085 0
-19.58923 -5.6191502 -1.6145555 0
-6.3747768 -1.851597 -0.96821368 0
-11.93955 -3.5178268 -1.466625 0
-19.609201 -5.8641171 -1.6244059 0
-6.3397698 -1.9165758 -0.96817875 0
-11.869538 -3.6377838 -1.4615614 0
-19.484182 -6.0590506 -1.6193042 0
-6.2297659 -1.9565288 -0.94816744 0
-11.849524 -3.7777565 -1.4664807 0
-14.504391 -4.6931701 -1.500652 0
-41.223087 -13.512329 -1.7325442 0
-9.1896296 -3.0422137 -1.3072054 0
-14.544371 -4.8831501 -1.5105375 0
-42.507977 -14.452484 -1.8018565 0
-8.9796267 -3.0821383 -1.2772063 0
-14.60435 -5.0831361 -1.5254159 0
-42.387936 -14.932379 -1.8015966 0
-11.60449 -4.1276217 -1.4463071 0
-42.762886 -15.387398 -1.8262949 0
-8.9396114 -3.2470975 -1.2771171 0
-14.429332 -5.3130498 -1.5153061 0
-6.1347346 -2.2764449 -0.94799459 0
-11.449476 -4.3025484 -1.4362272 0
-14.499312 -5.5180373 -1.5301841 0
-44.812687 -17.247595 -1.9450123 0
-8.7995977 -3.4170272 -1.2670397 0
-14.4343 -5.6729951 -1.5301074 0
-43.922688 -17.467352 -1.9100013 0
-8.7645903 -3.5170012 -1.266989 0
-14.439284 -5.8629661 -1.5350027 0
-44.787598 -18.387417 -1.9643934 0
-8.584589 -3.5569375 -1.24199 0
-45.962498 -19.347548 -2.0287275 0
-8.4895868 -3.6019006 -1.2319789 0
-14.079277 -6.0428362 -1.5049529 0
-46.847404 -20.337608 -2.0830851 0
-8.1345959 -3.5567942 -1.1770495 0
-14.024266 -6.2027998 -1.5098759 0
-46.927361 -20.987532 -2.0977333 0
-8.0945902 -3.6467688 -1.1770077 0
-14.074251 -6.4127841 -1.5247594 0
-47.292294 -21.782505 -2.1322706 0
-7.8145967 -3.6266816 -1.1320558 0
-13.929247 -6.5327263 -1.5147175 0
-47.822227 -22.672503 -2.1717396 0
-7.7345943 -3.691649 -1.1270339 0
-13.889237 -6.702692 -1.5196363 0
-48.22216 -23.517471 -2.2012541 0
-7.7495871 -3.806639 -1.1369731 0
-13.774231 -6.8376422 -1.5145843 0
-13.784226 -6.917634 -1.5195429 0
-24.278606 -12.314414 -2.2503238 0
-5.4947057 -2.8061619 -0.88280034 0
-5.4747047 -2.8261504 -0.87779343 0
-10.429417 -5.4370813 -1.3707707 0
-23.963598 -12.629289 -2.2352142 0
-24.238575 -12.909324 -2.2700362 0
-5.3497062 -2.8661065 -0.86279285 0
-10.34441 -5.602036 -1.3707021 0
-13.514211 -7.3924961 -1.5143499 0
-13.484208 -7.4524798 -1.5143261 0
-13.454206 -7.5124645 -1.5143023 0
-10.14941 -5.726964 -1.3556733 0
-7.1195908 -4.0614104 -1.0619438 0
-7.1145892 -4.1014061 -1.0669254 0
-9.9244156 -5.7768927 -1.3306851 0
-13.279201 -7.8073816 -1.5141902 0
-13.364193 -7.9323883 -1.529119 0
-23.998522 -14.389076 -2.3193712 0
-24.003515 -14.534061 -2.3293037 0
-13.204194 -8.0773306 -1.524078 0
-9.6344194 -5.9567876 -1.3056494 0
-9.7244129 -6.0718012 -1.3255818 0
-6.9545846 -4.3863268 -1.0668203 0
-6.909586 -4.4013119 -1.061821 0
-6.9045854 -4.4413075 -1.0668038 0
-5.1696925 -3.3609965 -0.8775903 0
-5.0746975 -3.3309717 -0.86262047 0
-23.043535 -15.31373 -2.289114 0
-12.834193 -8.612175 -1.5188975 0
-12.774193 -8.6571589 -1.518885 0
-6.66959 -4.5662313 -1.0467854 0
-32.022854 -22.194065 -1.5194422 0
-6.7245831 -4.691236 -1.0617177 0
-6.6495867 -4.6812167 -1.0517348 0
-6.7545786 -4.8012381 -1.0766615 0
-9.1294203 -6.5466042 -1.2954615 0
-6.7395759 -4.8812289 -1.0816268 0
-4.8496976 -3.5458932 -0.84755731 0
-25.713264 -19.033577 -1.9419444 0
-12.259196 -9.1620007 -1.5037353 0
-6.3595939 -4.8011351 -1.0267277 0
-34.987576 -26.73427 -1.7568567 0
-4.8896899 -3.7608943 -0.87745249 0
-12.099196 -9.4219484 -1.5086457 0
-6.3795867 -5.0211291 -1.0516247 0
-4.7796941 -3.7958643 -0.8674562 0
-4.7546945 -3.810858 -0.86745381 0
-4.7096963 -3.8108439 -0.85746169 0
-12.029188 -9.8469076 -1.533469 0
-6.1545954 -5.0910664 -1.0266342 0
-11.954189 -10.006881 -1.5384129 0
-6.0795979 -5.1410475 -1.0266266 0
-11.689202 -10.006821 -1.5134623 0
-5.9696026 -5.1610169 -1.0116388 0
-11.6542 -10.2068 -1.5233819 0
-8.4544277 -7.4713879 -1.3001704 0
-5.8246098 -5.190979 -0.99665451 0
-11.594199 -10.476774 -1.538278 0
-19.703617 -17.952824 -2.1935146 0
-19.578625 -17.997795 -2.1885207 0
-19.548624 -18.127781 -2.1934721 0
-19.428631 -18.182755 -2.188472 0
-19.368633 -18.282738 -2.1934431 0
-19.213642 -18.297705 -2.1834681 0
-46.941628 -45.101086 -4.2416596 0
-5.8396029 -5.6459708 -1.0514586 0
-7.8844562 -7.6862473 -1.2601928 0
-7.9444518 -7.8062572 -1.2801321 0
-7.9644494 -7.9012585 -1.2900878 0
-7.8794551 -7.8812399 -1.2801147 0
-7.8544569 -7.9212346 -1.2851044 0
-7.819458 -7.9662256 -1.2850918 0
-5.8096027 -5.9709554 -1.0863322 0
-5.7996035 -6.0109501 -1.0863185 0
-5.8046026 -6.0709515 -1.0962929 0
-5.779604 -6.1009445 -1.0962858 0
-5.7696047 -6.1409421 -1.1012725 0
-5.7646046 -6.1909399 -1.1062535 0
-5.7646046 -6.2459378 -1.1112314 0
-5.7946024 -6.3359437 -1.1261886 0
-5.8595982 -6.4609547 -1.1461248 0
-5.8495984 -6.5109549 -1.1561068 0
-5.8096013 -6.5209446 -1.1511122 0
-5.7296071 -6.4909282 -1.1411419 0
-5.7796035 -6.6059356 -1.1560854 0
-5.7646046 -6.6459322 -1.1610734 0
-5.7546058 -6.69593 -1.1660558 0
-5.7096086 -6.7059193 -1.1610618 0
-5.6196146 -6.6559005 -1.1461027 0
-5.5396204 -6.6208849 -1.136135 0
-5.4396276 -6.5608625 -1.1161816 0
-5.4396281 -6.6208634 -1.1261582 0
-5.4646268 -6.7058659 -1.1361206 0
-6.2745724 -7.776032 -1.3555151 0
-6.3595672 -7.9510479 -1.3854278 0
-5.9695935 -7.5309701 -1.2956827 0
-6.224577 -7.9260211 -1.3704699 0
-6.1695814 -7.9260097 -1.3654835 0
-6.1345844 -7.9560018 -1.3654802 0
-7.7044702 -10.081161 -1.49929 0
-14.688959 -19.381813 -1.9790542 0
-22.2684 -29.642403 -2.2933102 0
-22.118414 -29.717379 -2.2933187 0
-21.988424 -29.817356 -2.2933135 0
-21.878433 -29.952337 -2.2982891 0
-21.72345 -30.007307 -2.293309 0
-21.588461 -30.112286 -2.2933021 0
-21.463474 -30.207262 -2.2933006 0
-21.333485 -30.307241 -2.2932963 0
-21.1985 -30.412218 -2.2932899 0
-21.073511 -30.507198 -2.2982888 0
-20.943523 -30.617176 -2.2982802 0
-20.818537 -30.712154 -2.2982795 0
-20.678551 -30.812132 -2.2982771 0
-20.553562 -30.917112 -2.2982717 0
-20.428576 -31.017088 -2.298269 0
-20.288589 -31.112068 -2.2982697 0
-20.148603 -31.192047 -2.2982783 0
-20.023617 -31.297028 -2.3032737 0
-19.878632 -31.387007 -2.3032782 0
-9.809351 -15.651311 -1.8716881 0
-5.1396723 -8.2858086 -1.3156136 0
-4.1797395 -6.8057137 -1.2214085 0
-19.318693 -31.876917 -2.308253 0
-19.178709 -31.966898 -2.3082581 0
-6.4695883 -10.910936 -1.4993043 0
-4.0247545 -6.8606868 -1.2164302 0
-3.9947579 -6.8756819 -1.2164334 0
-3.9547615 -6.8756738 -1.2114446 0
-9.2044182 -16.231215 -1.8916454 0
-6.2196159 -11.090896 -1.4993095 0
-6.1696219 -11.105887 -1.4993197 0
-6.1146274 -11.13088 -1.499325 0
-6.0646329 -11.155873 -1.4993303 0
-4.5647311 -8.490715 -1.3006986 0
-8.7644691 -16.551151 -1.9016545 0
-4.4647417 -8.5306978 -1.2957128 0
-8.5794897 -16.646128 -1.9016736 0
-4.3697524 -8.5706844 -1.2957269 0
-8.4095097 -16.766106 -1.9066801 0
-4.2497635 -8.5706654 -1.2857598 0
-8.2395239 -16.886086 -1.9066801 0
-4.1397715 -8.5906525 -1.2807797 0
-35.317841 -74.417671 -3.5235875 0
-7.994544 -17.05106 -1.9116812 0
-3.9947829 -8.6306372 -1.2808015 0
-7.7845607 -17.096039 -1.906718 0
-3.8897913 -8.6556244 -1.2758192 0
-7.599576 -17.18602 -1.9067333 0
-3.7897995 -8.6756124 -1.270839 0
-3.7498026 -8.690608 -1.2708437 0
-7.3395982 -17.320997 -1.9117515 0
-3.6398113 -8.705596 -1.2658665 0
-7.1646128 -17.440983 -1.9167538 0
-3.5398195 -8.7305861 -1.2658844 0
-6.9846287 -17.555967 -1.9217596 0
-3.434828 -8.7505741 -1.2609049 0
-6.8146439 -17.695953 -1.926754 0
-3.3298366 -8.7705631 -1.2559253 0
-6.6496592 -17.845942 -1.9367447 0
-3.2248454 -8.780551 -1.2509506 0
-6.4796753 -17.990931 -1.9467387 0
-3.1148543 -8.7855406 -1.2459781 0
-6.2946916 -18.12092 -1.9567406 0
-3.0048635 -8.7855291 -1.2410079 0
-6.0947094 -18.1759 -1.9517772 0
-2.8998723 -8.7955189 -1.2360332 0
-5.8947272 -18.245886 -1.9518073 0
-2.7948813 -8.7855082 -1.2310672 0
-5.6897454 -18.30587 -1.9518421 0
-2.6898901 -8.7954988 -1.2260925 0
-5.404767 -18.09584 -1.9219966 0
-2.5748994 -8.7754879 -1.221131 0
-5.209785 -18.155828 -1.9220309 0
-2.4749084 -8.7754793 -1.2161603 0
-5.1747966 -18.835848 -1.9967964 0
-2.3649175 -8.7604685 -1.2061965 0
-4.709825 -17.90078 -1.8772633 0
-2.2549269 -8.7504587 -1.2012303 0
-4.3648477 -17.375736 -1.807549 0
-2.149936 -8.7304478 -1.1912682 0
-4.0448694 -16.895697 -1.7428112 0
-2.044945 -8.7204399 -1.1863017 0
-5.6448212 -24.760843 -2.0795472 0
-5.514832 -24.680834 -2.0696144 0
-5.4797072 -24.88862 3.2654409 0
-1.8999575 -8.7054291 -1.1813489 0
-5.3998165 -24.920341 -0.89956343 0
-1.8599612 -8.7004242 -1.1763626 0
-1.8099648 -8.6704197 -1.1713868 0
-1.7749684 -8.6854181 -1.1713921 0
-1.7349721 -8.6704159 -1.1714098 0
-1.6949756 -8.6754112 -1.1664195 0
-3.9799221 -21.100647 -1.7163327 0
-3.7999322 -20.625622 -1.6665552 0
-3.6749413 -20.465612 -1.6516479 0
-3.4949508 -19.975588 -1.6018745 0
-3.3699596 -19.760576 -1.5819882 0
-3.2349682 -19.47056 -1.5521319 0
-3.1299767 -19.380552 -1.5421941 0
-3.0299847 -19.315548 -1.537246 0
-2.9049928 -19.075535 -1.5123676 0
-6.8599277 -46.250256 -0.78655493 0
-1.0450161 -7.2003574 -1.0871338 0
-1.0100189 -7.1803541 -1.0821514 0
-0.97502196 -7.1853528 -1.082159 0
-0.94502497 -7.1753516 -1.0821724 0
-0.90502781 -7.1503477 -1.0771918 0
-0.88003093 -7.1803479 -1.0821894 0
-1.2750403 -10.760408 -1.240802 0
-1.2200447 -10.730404 -1.2358282 0
-1.170049 -10.7004 -1.230854 0
-1.4550624 -13.845443 -1.3446536 0
-1.7550769 -17.415442 -1.3482978 0
-6.6152658 -68.556023 -2.9037061 0
-0.8000555 -8.5353556 -1.1267325 0
-0.94506818 -10.590386 -1.2109597 0
-0.8950724 -10.560383 -1.2059852 0
-0.85007662 -10.54038 -1.2010067 0
-0.80008078 -10.515377 -1.1960301 0
-0.75008506 -10.495375 -1.1960516 0
-0.70508915 -10.475372 -1.1910728 0
-0.65509331 -10.455369 -1.1860942 0
-0.60509759 -10.435369 -1.1861156 0
-0.9001469 -16.705397 -1.2738032 0
-0.36507732 -7.0803175 -1.0523787 0
-0.49010777 -10.370361 -1.1761739 0
-1.1252457 -26.200493 -1.5453672 0
-0.41511381 -10.335358 -1.1712074 0
-0.5100975 -13.709591 0.92501354 0
-0.87026095 -25.545471 -1.4956757 0
-0.51017445 -16.040369 -1.2091559 0
-0.74526852 -25.255463 -1.4758149 0
-0.38513982 -13.770059 -0.35500094 0
-0.34515673 -13.675288 -0.99004459 0
-0.19010991 -8.3603258 -1.0919763 0
-0.2351619 -12.825369 -1.215378 0
-0.36030301 -25.040457 -1.4610083 0
-0.095118269 -8.3403225 -1.087011 0
-0.090173721 -12.710361 -1.2004615 0
-0.080319382 -24.285437 -1.4113597 0
-0.005126161 -8.2903166 -1.0770563 0
0.044814348 -12.620357 -1.1905351 0
0.18966122 -23.865425 -1.3815875 0
0.089865729 -8.260314 -1.0720941 0
0.18480241 -12.545352 -1.1806028 0
0.44464222 -23.470415 -1.3518041 0
0.17985739 -8.2403116 -1.0721283 0
0.32479036 -12.47535 -1.1756686 0
0.70461982 -23.335411 -1.341928 0
0.22986984 -6.9202933 -1.0226111 0
0.36981785 -9.9503269 -1.116578 0
0.88462704 -21.52537 -1.2176247 0
0.43481231 -9.9153252 -1.1116096 0
3.1238437 -65.855942 -2.7725646 0
0.61976349 -12.380345 -1.165791 0
1.109621 -20.390345 -1.1430939 0
0.46483254 -8.1153021 -1.0522572 0
0.85972649 -14.055302 -1.0302693 0
0.51483059 -8.1053009 -1.0522783 0
1.3496182 -19.950336 -1.1133306 0
0.68979871 -9.7903175 -1.0967349 0
1.0247298 -13.715291 -1.0004469 0
0.52485287 -6.8152833 -1.0077429 0
0.78979856 -9.7053137 -1.0868005 0
1.1697283 -13.655289 -0.99551892 0
0.59985232 -6.7852802 -1.0027788 0
1.2597272 -13.630288 -0.99055839 0
0.64485204 -6.7652779 -0.99780083 0
0.95479763 -9.6103067 -1.0718907 0
1.4047256 -13.570288 -0.99062979 0
0.71485144 -6.7352748 -0.99283636 0
1.0547969 -9.5503044 -1.0669464 0
1.5447247 -13.475285 -0.98071194 0
0.78985089 -6.7052717 -0.98787165 0
1.1547961 -9.5053015 -1.0619972 0
2.2846332 -18.170301 -0.99428713 0
1.2147959 -9.4652996 -1.0570315 0
4.3243489 -32.690418 -1.2497959 0
1.6597382 -12.305341 -1.1661688 0
0.91485012 -6.6402659 -0.97793782 0
1.8797226 -13.265281 -0.96590006 0
1.1198272 -7.7652779 -1.007606 0
2.5646434 -17.310284 -0.93968904 0
1.4047953 -9.3202925 -1.0421478 0
3.9744787 -25.675304 -0.92218113 0
1.9097375 -12.110334 -1.1513215 0
1.0548489 -6.5802622 -0.97300649 0
2.2047138 -13.410288 -0.98595715 0
1.2848259 -7.6852727 -0.99768913 0
2.8396513 -16.59527 -0.89003456 0
1.5947945 -9.1952858 -1.0272558 0
4.2695026 -24.010284 -0.84787023 0
2.1347384 -11.845325 -1.1264919 0
1.3898257 -7.605268 -0.98775363 0
1.2048479 -6.5102568 -0.96308208 0
4.5095015 -23.835285 -0.84301281 0
2.2447393 -11.70532 -1.1115777 0
1.2598476 -6.4752555 -0.963112 0
2.7846918 -14.040312 -1.0509268 0
1.5198247 -7.5452652 -0.98281705 0
3.339648 -16.26527 -0.87531805 0
1.8697939 -8.9852772 -1.0074208 0
4.8695092 -22.985283 -0.80843592 0
2.4547412 -11.42031 -1.0817475 0
1.3948467 -6.4152503 -0.95317793 0
3.1746795 -14.325324 -1.0859524 0
1.664825 -7.4102588 -0.96791208 0
3.7446384 -16.39028 -0.89040589 0
2.0447938 -8.8402729 -0.99252903 0
5.1545234 -21.910273 -0.76390839 0
2.6547427 -11.160302 -1.0569059 0
2.6797426 -11.145303 -1.0569185 0
2.6997423 -11.135302 -1.0569296 0
1.5548456 -6.3352466 -0.94825816 0
3.4746819 -13.915317 -1.0561944 0
1.8548231 -7.3452554 -0.96299696 0
4.4446092 -17.325312 -0.96530068 0
2.2497935 -8.6752672 -0.97765362 0
5.4545393 -20.685263 -0.71443629 0
2.9147425 -10.940297 -1.0420659 0
1.6798457 -6.2352405 -0.93333268 0
3.7296824 -13.650311 -1.0363697 0
2.0048227 -7.2552514 -0.95307612 0
4.7546105 -16.960308 -0.94552743 0
2.4147933 -8.5402613 -0.96275449 0
5.9845271 -20.840277 -0.72455096 0
3.1197424 -10.755293 -1.0271962 0
2.4847932 -8.485261 -0.96279454 0
6.4545031 -21.730297 -0.76938379 0
3.1897435 -10.64529 -1.0172569 0
1.8548448 -6.1352367 -0.92842388 0
4.0846825 -13.315309 -1.0165987 0
2.2098217 -7.1302471 -0.94318426 0
5.1796112 -16.500309 -0.92582214 0
3.3297436 -10.515287 -1.0073456 0
2.2648215 -7.0902467 -0.94321561 0
9.6393299 -29.815098 0.28745997 0
7.0644932 -21.680313 -0.77959192 0
4.2896838 -13.060305 -0.99675202 0
2.7447932 -8.2752542 -0.94294846 0
2.0198443 -6.0352316 -0.91850853 0
4.3796849 -12.940303 -0.99182057 0
2.3898215 -6.9952426 -0.93328679 0
11.889212 -34.430157 0.28838307 0
5.5846128 -16.030308 -0.90110922 0
2.8697932 -8.1702518 -0.93302345 0
2.1148443 -5.9702291 -0.91356027 0
5.6996131 -15.910308 -0.89618611 0
3.6847436 -10.205283 -0.98756146 0
2.9397938 -8.090251 -0.92807293 0
2.1698444 -5.9252272 -0.90859318 0
5.8396139 -15.745308 -0.89128435 0
3.0047939 -8.0352488 -0.92311013 0
7.7695012 -20.545317 -0.74019742 0
3.8247447 -10.040279 -0.9726609 0
2.2498446 -5.8602238 -0.8986392 0
4.8296866 -12.4353 -0.96213055 0
2.6548216 -6.7752357 -0.91344202 0
6.114615 -15.435309 -0.87647271 0
3.1497943 -7.8902459 -0.91320312 0
8.1445026 -20.180323 -0.73043334 0
3.9897466 -9.8052759 -0.95778871 0
2.369844 -5.7852225 -0.89869976 0
8.2695036 -19.980324 -0.72553802 0
5.0496893 -12.120296 -0.94230247 0
3.2547956 -7.7602425 -0.89827871 0
2.4198449 -5.7252192 -0.88873446 0
8.4045067 -19.680326 -0.71567822 0
5.1496906 -11.975295 -0.93237936 0
4.1297498 -9.5502701 -0.93291712 0
2.8648226 -6.5752301 -0.8985709 0
16.669069 -37.920303 0.28818721 0
6.5746183 -14.850311 -0.85180533 0
4.2047505 -9.4302683 -0.92297852 0
2.5298448 -5.6352172 -0.88379633 0
8.6495132 -19.080326 -0.69095182 0
5.3396931 -11.695293 -0.91752756 0
3.4647963 -7.545239 -0.88341057 0
2.5848451 -5.5952153 -0.87882555 0
8.7745161 -18.805328 -0.68607974 0
5.4146948 -11.525291 -0.90760624 0
3.5297971 -7.4702373 -0.87845397 0
2.6398456 -5.5402136 -0.87385774 0
8.9145184 -18.565331 -0.67619884 0
5.5146956 -11.405291 -0.89767337 0
3.5947976 -7.3902364 -0.87349808 0
2.6898456 -5.4952121 -0.86888731 0
9.0545216 -18.330332 -0.67131472 0
5.6046972 -11.27529 -0.89274168 0
3.6547983 -7.310235 -0.86854136 0
2.7448456 -5.4552116 -0.86891556 0
9.1945229 -18.110334 -0.66142619 0
5.6996975 -11.160291 -0.88780606 0
3.7147989 -7.2352343 -0.86358309 0
9.3095245 -17.935337 -0.65651381 0
4.5947571 -8.8002596 -0.87829602 0
2.8298459 -5.3802099 -0.86396241 0
5.8346992 -10.99529 -0.87789536 0
3.2748258 -6.1352205 -0.86383033 0
25.043785 -46.510563 0.28880116 0
5.8997002 -10.89029 -0.87294769 0
3.3248262 -6.0902195 -0.85885704 0
7.4396305 -13.520316 -0.79748189 0
3.889801 -7.0202312 -0.8486979 0
9.6795311 -17.315346 -0.64181328 0
4.7897601 -8.5202579 -0.86343837 0
2.969847 -5.2502065 -0.8540417 0
6.0747023 -10.640291 -0.86307323 0
3.9748018 -6.9202294 -0.83875215 0
3.0098474 -5.2052064 -0.85406542 0
9.8745346 -16.960348 -0.63197863 0
4.8997622 -8.3652554 -0.8535161 0
3.0548475 -5.1802058 -0.85408509 0
6.2147045 -10.455291 -0.85316837 0
3.5248277 -5.8902168 -0.84897256 0
7.7996383 -12.920319 -0.7727654 0
4.1098051 -6.7652278 -0.83383584 0
10.129548 -16.545349 -0.62217987 0
5.03477 -8.1702509 -0.83861446 0
3.1448531 -5.0752001 -0.84414363 0
6.3597212 -10.175282 -0.83829963 0
3.6298373 -5.7702088 -0.83904076 0
7.9746637 -12.575305 -0.7579298 0
4.2198176 -6.6202188 -0.82391584 0
3.2098598 -5.0051947 -0.83918452 0
10.359585 -16.030334 -0.60741401 0
6.4547377 -9.9352713 -0.82340586 0
4.2798243 -6.5502143 -0.81895459 0
3.2548647 -4.9551897 -0.83421326 0
8.1246862 -12.265295 -0.74807239 0
4.3248286 -6.4952102 -0.81398475 0
17.049374 -25.390455 -0.42607233 0
8.1946955 -12.145289 -0.7431314 0
5.2798014 -7.78023 -0.81880963 0
3.809855 -5.580195 -0.82915092 0
17.099403 -24.870443 -0.41625586 0
6.5997639 -9.5402527 -0.79857194 0
3.8498588 -5.5401917 -0.82917535 0
8.3247147 -11.870278 -0.73325229 0
4.4598432 -6.3301997 -0.80907333 0
27.984116 -39.405396 1.4057053 0
8.3847237 -11.735273 -0.72831082 0
5.424819 -7.5502167 -0.80391955 0
3.929867 -5.4451847 -0.82422531 0
3.4548831 -4.7601743 -0.82932675 0
20.459381 -28.005383 0.28391609 0
17.334475 -23.600412 -0.39671943 0
10.834672 -14.685294 -0.56797075 0
6.7497926 -9.095233 -0.77375078 0
4.5948567 -6.1601882 -0.79915905 0
3.5048897 -4.6751671 -0.81936574 0
8.5647497 -11.345258 -0.7134788 0
6.8098011 -8.9702272 -0.76880467 0
4.6498628 -6.0901837 -0.79419363 0
3.5598934 -4.6451631 -0.81938875 0
10.9547 -14.180278 -0.55315685 0
6.8748097 -8.8502207 -0.76385701 0
4.6998677 -6.0251789 -0.79422688 0
3.5998976 -4.5901594 -0.81941485 0
11.034714 -13.96527 -0.54824173 0
6.9148183 -8.7052135 -0.75391126 0
4.7548738 -5.955174 -0.78926015 0
3.6399021 -4.5301547 -0.81444097 0
11.114727 -13.745262 -0.54332542 0
6.9748263 -8.5802069 -0.74896193 0
4.8098788 -5.8901696 -0.78929234 0
3.684906 -4.4851503 -0.81446481 0
11.189739 -13.535254 -0.53840625 0
7.0298347 -8.4552011 -0.7440114 0
5.7748642 -6.9101801 -0.7741977 0
4.8748851 -5.8101635 -0.78433025 0
3.7349107 -4.4251451 -0.80949354 0
11.284755 -13.285246 -0.53350043 0
7.0848441 -8.2951937 -0.73907053 0
4.9248905 -5.7351584 -0.7793622 0
3.764915 -4.3651395 -0.80451822 0
17.549644 -20.205324 -0.33780131 0
8.9898148 -10.295212 -0.67388809 0
5.8798776 -6.7001667 -0.75928187 0
4.3349085 -4.9151435 -0.79447734 0
17.574665 -19.790312 -0.33292636 0
9.0248251 -10.110204 -0.66894889 0
5.9148836 -6.595161 -0.75431967 0
4.3799129 -4.8551388 -0.79450321 0
17.604683 -19.3853 -0.32804719 0
9.0648346 -9.9301968 -0.65900779 0
5.9798894 -6.5151558 -0.75435436 0
4.4149175 -4.7901335 -0.7895292 0
17.614702 -18.970287 -0.31816527 0
9.1248436 -9.7751884 -0.65406251 0
6.0248952 -6.4201503 -0.74938953 0
4.4599214 -4.7301292 -0.78955412 0
17.649719 -18.590277 -0.31327656 0
9.1748524 -9.6151819 -0.64911652 0
6.0649009 -6.3301439 -0.74442351 0
4.4949255 -4.6651239 -0.78457904 0
17.654737 -18.185265 -0.30838713 0
9.219861 -9.4451742 -0.64417005 0
6.1199064 -6.2401381 -0.73945665 0
4.5399294 -4.6101193 -0.7846024 0
17.654755 -17.795252 -0.29849264 0
9.2698698 -9.295167 -0.63922012 0
6.1499119 -6.1351323 -0.73449028 0
5.2449245 -5.2101212 -0.75957131 0
4.5849342 -4.5301132 -0.7796309 0
17.644773 -17.315239 -0.29361627 0
9.3248787 -9.1051569 -0.62927973 0
6.1949186 -6.0151248 -0.72952902 0
4.6149383 -4.4601078 -0.77465427 0
17.639788 -16.925226 -0.28871462 0
11.869858 -11.33517 -0.48414817 0
9.3948879 -8.9301491 -0.624336 0
6.2549243 -5.9201179 -0.72456455 0
4.6549435 -4.3801017 -0.76968133 0
17.644808 -16.485212 -0.2788265 0
9.4198952 -8.7601414 -0.61938334 0
6.2949295 -5.8251119 -0.72459459 0
4.6899467 -4.3150964 -0.76470315 0
17.61482 -16.1052 -0.27391693 0
9.469903 -8.6101332 -0.6144278 0
6.324934 -5.7251058 -0.71462405 0
5.4099436 -4.8750968 -0.74468374 0
4.1949563 -3.7600856 -0.77975905 0
17.624838 -15.690186 -0.26901904 0
11.98989 -10.62514 -0.46434405 0
9.489913 -8.3701229 -0.6044898 0
6.3849411 -5.6000977 -0.71466315 0
4.7699552 -4.1650839 -0.75975275 0
17.609854 -15.260172 -0.25911757 0
9.5349197 -8.2251158 -0.59953082 0
6.4249458 -5.5100918 -0.70969009 0
4.8049588 -4.1000786 -0.75977254 0
4.2699637 -3.6250737 -0.77480173 0
31.074778 -26.230188 1.2263938 0
17.569872 -14.750155 -0.25422779 0
12.094913 -10.105118 -0.45447889 0
9.60993 -7.9901028 -0.59459412 0
9.609931 -7.9551015 -0.59460211 0
7.8149447 -6.4400897 -0.66468287 0
6.4949541 -5.325079 -0.69974196 0
5.5599608 -4.5400724 -0.72978354 0
5.5649619 -4.520071 -0.72478795 0
4.8799667 -3.945066 -0.74981797 0
4.8899674 -3.9350648 -0.74982142 0
4.8999681 -3.9250638 -0.749825 0
4.9099684 -3.9150629 -0.74982846 0
4.9199691 -3.905062 -0.74983191 0
4.9299698 -3.8950608 -0.74983537 0
4.9349704 -3.88006 -0.74983895 0
4.3599744 -3.4150555 -0.76486087 0
