# .PCD v0.7 - Point Cloud Data file format
VERSION 0.7
FIELDS x y z intensity
SIZE 4 4 4 4
TYPE F F F F
COUNT 1 1 1 1
WIDTH 1421
HEIGHT 1
VIEWPOINT 0 0 0 1 0 0 0
POINTS 1421
DATA ascii
0.6396969 -6.3850422 -0.92607296 0
1.3336928 -12.76515 -0.90928292 0
0.78954291 -7.3901005 -0.94000661 0
1.7282484 -15.580119 -0.80130124 0
0.99932694 -8.7801733 -0.95853364 0
2.7719853 -23.535311 -0.80286789 0
1.3439541 -11.15032 -1.0260239 0
0.77971989 -6.3401222 -0.92113125 0
1.9532747 -15.420196 -0.79650593 0
1.1243473 -8.7052269 -0.94862771 0
3.0221188 -22.650354 -0.7638644 0
1.503975 -11.055379 -1.0161462 0
0.86974055 -6.2801704 -0.91120195 0
1.8087163 -12.68033 -0.90443742 0
1.0545895 -7.2502294 -0.92017972 0
2.2882917 -15.32531 -0.79165554 0
1.3043786 -8.5853043 -0.93377471 0
10.634746 -68.210503 0.34910691 0
2.4232979 -15.290358 -0.79171193 0
1.74402 -10.835468 -0.99641144 0
1.1796083 -7.2052951 -0.91523838 0
11.319785 -67.71566 0.34844774 0
2.2136657 -13.035516 -0.94410861 0
1.234619 -7.1753297 -0.91527545 0
2.658339 -15.045434 -0.77700818 0
1.5194131 -8.4654055 -0.92392445 0
1.1197904 -6.160316 -0.89634657 0
1.1347913 -6.1653299 -0.90134227 0
2.9582095 -15.794003 0.66875386 0
3.8125226 -20.030535 -0.651811 0
2.0340796 -10.545574 -0.96675646 0
1.1998043 -6.1353674 -0.89637828 0
2.6886022 -13.465726 -0.98870873 0
1.434652 -7.090435 -0.90538204 0
3.1233287 -15.125607 -0.78698587 0
1.7344557 -8.3055077 -0.90911651 0
4.1026478 -19.24062 -0.62270403 0
2.229126 -10.32065 -0.9470191 0
1.3248346 -6.0504417 -0.88647604 0
2.9286582 -13.15581 -0.96907222 0
1.5796824 -6.9955134 -0.89549398 0
3.6382127 -15.835817 -0.84129393 0
1.9044884 -8.1855907 -0.89925945 0
4.2978196 -18.180672 -0.5738709 0
4.3328257 -18.145685 -0.57391322 0
4.387815 -18.205706 -0.57885683 0
3.1487014 -12.925887 -0.94934595 0
1.7097058 -6.9355879 -0.89056766 0
4.0031939 -15.955956 -0.85621452 0
2.0495169 -8.0856638 -0.88937902 0
1.5248766 -5.9555678 -0.87658823 0
4.7777848 -18.370838 -0.58873391 0
3.3337452 -12.690956 -0.93461931 0
2.1295328 -8.0307045 -0.88444448 0
1.589889 -5.9306107 -0.87661815 0
5.2126479 -19.170988 -0.62793756 0
3.4487677 -12.575998 -0.92475641 0
2.2145479 -7.9807467 -0.87950456 0
1.6499032 -5.8956485 -0.87165821 0
5.4526358 -19.231075 -0.63790751 0
3.5488005 -12.401039 -0.91495466 0
2.2895646 -7.9207873 -0.87457466 0
2.309567 -7.9157972 -0.87458134 0
1.9897654 -6.7607498 -0.87577224 0
7.5066123 -25.181133 -0.30682459 0
4.5983086 -15.291165 -0.82200372 0
2.9442685 -9.6959639 -0.89775968 0
2.0597799 -6.7207894 -0.87081897 0
8.1564121 -26.306313 -0.33571371 0
4.7383318 -15.16122 -0.81716061 0
3.0292912 -9.5960064 -0.892874 0
2.1247954 -6.6758332 -0.87087059 0
9.5957975 -29.790943 0.30781022 0
8.8212547 -27.161499 -0.35989377 0
4.9033666 -14.96628 -0.80738795 0
3.1393137 -9.5010557 -0.88298512 0
2.204814 -6.6208816 -0.86593342 0
9.4510918 -28.056673 -0.38402727 0
5.0433888 -14.846334 -0.80253339 0
3.2293322 -9.4260998 -0.87807298 0
3.2443378 -9.4011087 -0.87810075 0
2.2798338 -6.5609288 -0.86100101 0
10.855594 -30.847034 -0.45124236 0
5.2034197 -14.676399 -0.79773343 0
2.719656 -7.611021 -0.84993541 0
14.109137 -39.035881 1.2820488 0
5.3084412 -14.56144 -0.79286814 0
2.7846696 -7.5660591 -0.84998691 0
6.7678013 -18.196535 -0.60918701 0
3.444387 -9.1962099 -0.86333537 0
2.1100247 -5.5809579 -0.84200835 0
4.3889861 -11.486396 -0.86101818 0
2.4698822 -6.4160461 -0.84616327 0
15.049175 -38.637127 0.3164849 0
5.5984955 -14.27156 -0.78320944 0
3.5794208 -9.0562773 -0.85349393 0
2.529902 -6.3510847 -0.84123385 0
7.1078935 -17.65667 -0.59480286 0
3.6394405 -8.9713097 -0.84858799 0
2.2450604 -5.4960556 -0.83710146 0
5.7885442 -14.011637 -0.76850522 0
3.6994593 -8.8913431 -0.84367669 0
3.0597446 -7.3012214 -0.83028269 0
2.3000753 -5.4610982 -0.83713949 0
7.3779516 -17.321775 -0.58519053 0
4.759069 -11.101566 -0.84146059 0
3.1247635 -7.2362618 -0.82535458 0
2.3550909 -5.4211359 -0.83218241 0
7.5229836 -17.141832 -0.58039844 0
4.844099 -10.956607 -0.83162045 0
3.1897831 -7.1663027 -0.82043123 0
2.4051087 -5.3711734 -0.82723522 0
7.6680155 -16.961891 -0.57560575 0
6.1486406 -13.511797 -0.74907148 0
3.9345334 -8.5864706 -0.81901348 0
2.8199832 -6.1112809 -0.82649589 0
17.469267 -37.562832 0.31499782 0
6.2586708 -13.356843 -0.73924565 0
4.0095539 -8.5065136 -0.81410253 0
2.8750005 -6.0613198 -0.82154989 0
6.3436956 -13.236882 -0.73438132 0
4.0645747 -8.4265451 -0.80919051 0
3.3798437 -6.9614224 -0.8056556 0
2.930021 -6.0013576 -0.8166151 0
18.444265 -37.468098 0.31475249 0
8.1181278 -16.377077 -0.56127965 0
6.5137372 -13.061955 -0.72958744 0
5.2492142 -10.466807 -0.80717552 0
4.1846137 -8.2916098 -0.79934311 0
3.4798784 -6.8564825 -0.79577255 0
3.0200529 -5.9164205 -0.81170857 0
2.6651888 -5.186367 -0.81743503 0
12.846583 -24.827793 -0.3479391 0
6.6737928 -12.81703 -0.71986616 0
4.2846484 -8.17167 -0.79447746 0
3.5649087 -6.7665396 -0.79087245 0
2.7202125 -5.126411 -0.81249893 0
24.092852 -45.079262 0.32204729 0
12.971712 -24.137857 -0.33369133 0
8.5332527 -15.792247 -0.54195404 0
5.4743109 -10.071924 -0.78261411 0
3.6499388 -6.6765957 -0.78597164 0
2.7902384 -5.0664639 -0.80756295 0
8.663291 -15.617307 -0.54215515 0
5.5543413 -9.9519672 -0.77774751 0
4.4597149 -7.9417725 -0.77973175 0
3.2251287 -5.7165666 -0.7969259 0
13.256873 -23.297985 -0.32462361 0
8.8083391 -15.392366 -0.53241003 0
7.0539236 -12.257212 -0.70049834 0
5.6593857 -9.7770243 -0.76793993 0
4.5497499 -7.8218307 -0.77486348 0
3.3051558 -5.6466222 -0.79200137 0
13.501951 -22.893072 -0.31508502 0
7.1589665 -12.072263 -0.69070375 0
4.609777 -7.7268705 -0.76996624 0
3.3601756 -5.5966649 -0.79205489 0
13.632019 -22.538132 -0.31047693 0
7.254003 -11.91731 -0.6858747 0
4.6798005 -7.6519113 -0.76504898 0
3.4051971 -5.5367007 -0.78711796 0
3.4152009 -5.5267091 -0.78712857 0
3.0203283 -4.8566518 -0.79778361 0
9.223485 -14.722558 -0.51816142 0
5.8994908 -9.3671646 -0.74838769 0
3.9950662 -6.3018303 -0.76637733 0
3.0703456 -4.8216934 -0.79782033 0
28.267986 -44.060364 0.3203615 0
13.96719 -21.663284 -0.30144122 0
9.3835411 -14.472633 -0.51344001 0
7.4941015 -11.502438 -0.67133117 0
5.9895453 -9.1472206 -0.73362231 0
4.8748746 -7.4070382 -0.75531411 0
3.555259 -5.3718171 -0.77729058 0
14.092295 -21.128353 -0.29201761 0
7.5941443 -11.322494 -0.66652703 0
4.9349003 -7.3220782 -0.75040483 0
3.6102781 -5.32686 -0.77733791 0
3.195401 -4.6867986 -0.78795803 0
9.623642 -14.017756 -0.50393903 0
6.1296158 -8.8773079 -0.71891046 0
4.2151475 -6.0719872 -0.75662196 0
3.2504175 -4.6568413 -0.78798914 0
9.7286825 -13.832808 -0.49914089 0
6.1896482 -8.7523479 -0.71404266 0
5.0649571 -7.1321664 -0.74060595 0
4.2801738 -5.997035 -0.75170064 0
3.7403257 -5.2069588 -0.77246201 0
3.3054466 -4.5818925 -0.78306425 0
28.348879 -39.08456 1.435099 0
14.377576 -19.70853 -0.26853248 0
9.9037561 -13.507896 -0.48949406 0
6.2997017 -8.5524216 -0.70425498 0
5.1700039 -6.9772372 -0.73076832 0
4.3802142 -5.8821082 -0.74681997 0
3.8253629 -5.1120286 -0.76755893 0
14.487673 -19.223602 -0.26404741 0
8.0043297 -10.562724 -0.63734388 0
6.3847461 -8.3874807 -0.69942796 0
5.2500391 -6.8622947 -0.72588837 0
4.4552455 -5.7921691 -0.74691248 0
3.8903921 -5.0370827 -0.76263475 0
3.4455099 -4.4320183 -0.77821302 0
16.582291 -21.228535 0.29780963 0
14.677781 -18.6987 -0.25461057 0
10.118909 -12.823035 -0.47021702 0
8.1493998 -10.277817 -0.63264573 0
6.4848118 -8.1375542 -0.68468654 0
5.3650904 -6.6973791 -0.72105908 0
4.5702868 -5.6822529 -0.74202609 0
3.9754362 -4.91716 -0.75775433 0
3.5305481 -4.3470955 -0.77329659 0
17.082359 -20.898714 0.29741871 0
14.847909 -18.073805 -0.25026998 0
10.254001 -12.418125 -0.46064135 0
8.2944698 -9.9979067 -0.62293994 0
6.5798774 -7.8926311 -0.67493784 0
5.4701414 -6.5324574 -0.71122813 0
4.6653347 -5.5423331 -0.73716676 0
4.0654788 -4.8072381 -0.75286317 0
3.6155879 -4.2521772 -0.77338862 0
14.993024 -17.523895 -0.24084654 0
8.3645363 -9.7229662 -0.61322141 0
5.5401797 -6.4075136 -0.70635438 0
4.1305022 -4.7522907 -0.75291753 0
15.038093 -17.193939 -0.23618785 0
8.4095755 -9.5630016 -0.60338509 0
5.5952048 -6.327558 -0.7064352 0
4.1705246 -4.6923261 -0.74797595 0
15.113154 -16.898989 -0.23149446 0
8.4596148 -9.4030418 -0.59854782 0
6.7649903 -7.4827714 -0.65535486 0
5.6602354 -6.2326059 -0.70153081 0
4.2155509 -4.622375 -0.74804378 0
15.183233 -16.524044 -0.22688022 0
8.5046635 -9.2080841 -0.58874512 0
5.7052631 -6.1426444 -0.69662023 0
4.2655725 -4.5674176 -0.7480967 0
15.2283 -16.209087 -0.22220233 0
8.5597 -9.0631256 -0.58389223 0
6.8800573 -7.2478657 -0.65059161 0
4.9304657 -5.1675577 -0.72253728 0
3.8306971 -3.9973867 -0.76363087 0
10.759299 -11.148457 -0.43695715 0
6.9300871 -7.1429057 -0.64569676 0
4.9804893 -5.1026006 -0.72260034 0
3.8657188 -3.9424217 -0.75868213 0
10.829341 -10.973502 -0.43213549 0
6.970119 -7.0279431 -0.64081049 0
5.0105152 -5.0226355 -0.71767724 0
3.8957419 -3.8824604 -0.75873768 0
10.874388 -10.778543 -0.42733142 0
7.0301471 -6.9329848 -0.63590515 0
5.0555387 -4.9576731 -0.71273971 0
3.9307616 -3.8374956 -0.75377929 0
10.944427 -10.61359 -0.42249873 0
7.0851769 -6.8330307 -0.63600397 0
5.095562 -4.8927145 -0.71280181 0
3.9807808 -3.7975428 -0.75881577 0
11.019468 -10.448642 -0.42266509 0
7.1102109 -6.7080655 -0.63112533 0
5.130589 -4.8127503 -0.7078774 0
3.9958048 -3.7325697 -0.74887538 0
11.074511 -10.273685 -0.41784003 0
7.1752386 -6.6181087 -0.62621379 0
5.1706133 -4.7427874 -0.70294344 0
4.5507321 -4.1526985 -0.73348737 0
15.51876 -14.084403 -0.19434494 0
8.8649731 -8.0034103 -0.5499444 0
6.0804815 -5.457974 -0.67228699 0
5.2256408 -4.6678386 -0.70301402 0
4.5907593 -4.0827422 -0.72855186 0
4.070857 -3.602659 -0.74399281 0
30.926134 -27.226219 1.2576859 0
15.583858 -13.644475 -0.18978131 0
11.22963 -9.7838106 -0.40832475 0
11.224642 -9.7388172 -0.40836832 0
8.9750414 -7.7484989 -0.54519379 0
7.3303342 -6.2982416 -0.61652303 0
6.1655412 -5.2730618 -0.66746223 0
6.1755471 -5.2530708 -0.66748083 0
6.1805525 -5.2380781 -0.66749501 0
6.1905575 -5.2230868 -0.6675092 0
5.3257108 -4.467948 -0.69819939 0
4.6858244 -3.9128497 -0.72370648 0
15.634008 -12.974571 -0.1804387 0
11.319738 -9.3489094 -0.39874867 0
11.319749 -9.3039169 -0.39879164 0
11.329758 -9.2689257 -0.39882556 0
26.647242 -21.730673 1.0975223 0
17.378773 -14.109076 0.81057692 0
17.373787 -14.039084 0.81050932 0
17.203829 -13.839064 0.80532348 0
17.133854 -13.719063 0.80021071 0
17.103874 -13.634065 0.80012965 0
17.058895 -13.534069 0.79503524 0
16.998917 -13.429066 0.79493606 0
16.943941 -13.324067 0.78983724 0
16.918957 -13.244071 0.78976107 0
16.858982 -13.129072 0.78465343 0
16.804003 -13.034069 0.78456378 0
16.76902 -12.949076 0.77948338 0
16.734041 -12.859076 0.77939856 0
16.709057 -12.784081 0.77932739 0
16.734068 -12.739094 0.77928352 0
16.694088 -12.654099 0.7742033 0
16.844076 -12.714133 0.77925432 0
16.944077 -12.724161 0.77926028 0
16.779112 -12.544142 0.77409434 0
16.829119 -12.51916 0.77406877 0
16.879124 -12.504175 0.77905208 0
16.919128 -12.479191 0.77902639 0
16.959139 -12.449206 0.77899504 0
17.004148 -12.424221 0.7789678 0
17.054155 -12.394237 0.77893627 0
17.104164 -12.379253 0.77891791 0
17.139174 -12.349266 0.7788862 0
17.184181 -12.324282 0.77885902 0
17.224192 -12.289295 0.77882314 0
17.269199 -12.264311 0.77879602 0
17.304209 -12.234324 0.77876431 0
17.354218 -12.209335 0.78373742 0
17.399227 -12.18435 0.78371036 0
17.589205 -12.263953 1.2887772 0
4.401094 -3.0530539 -0.72947574 0
4.9360237 -3.4131458 -0.70415318 0
5.5959373 -3.8532581 -0.67375934 0
5.5959439 -3.8332641 -0.67377746 0
5.6009498 -3.8182709 -0.67379117 0
5.6109543 -3.8082788 -0.67380035 0
5.6159606 -3.7932856 -0.67381394 0
5.6259665 -3.7782936 -0.67382753 0
5.6259723 -3.7632949 -0.66884112 0
5.640976 -3.7583082 -0.67384589 0
5.6409826 -3.7383094 -0.66886389 0
4.9910765 -3.2882154 -0.70426476 0
4.4461536 -2.918129 -0.72459412 0
4.4611578 -2.9131382 -0.72459841 0
4.4561644 -2.8931429 -0.72461581 0
4.471168 -2.8881516 -0.72461998 0
4.481173 -2.8781595 -0.72462857 0
18.349379 -11.734645 0.79322612 0
15.90972 -10.119979 -0.15320942 0
11.790261 -7.4543405 -0.36557391 0
9.5955515 -6.0340319 -0.51183343 0
9.6005583 -6.0090384 -0.51185691 0
9.605567 -5.9840407 -0.5068804 0
9.6055756 -5.9540467 -0.50690818 0
9.6255827 -5.9340563 -0.50692701 0
9.6255913 -5.9090619 -0.50695038 0
9.6355991 -5.8840694 -0.50697362 0
9.6456051 -5.8640771 -0.50699258 0
9.6456156 -5.829083 -0.50702453 0
9.6806202 -5.8240957 -0.50703013 0
9.685627 -5.7991023 -0.50705338 0
9.6956348 -5.7741103 -0.5070765 0
9.7106428 -5.7541189 -0.50709522 0
9.7156506 -5.7291255 -0.50711834 0
9.7206583 -5.7041321 -0.50714147 0
9.7156687 -5.6691327 -0.50217319 0
9.7506723 -5.6641498 -0.50717866 0
9.7256832 -5.6191459 -0.5022192 0
9.7406902 -5.5991545 -0.5022378 0
9.7406998 -5.56916 -0.5022651 0
8.0109062 -4.5538855 -0.5781548 0
8.0159121 -4.5388923 -0.57816851 0
8.0209188 -4.5138988 -0.5781908 0
6.8110633 -3.8087111 -0.63380754 0
5.8461781 -3.2485464 -0.65929687 0
5.1762576 -2.8634486 -0.69463301 0
4.6213245 -2.5433612 -0.71491194 0
4.6413283 -2.5383754 -0.71991575 0
20.094646 -10.92516 0.81739044 0
16.045111 -8.6701689 -0.13957629 0
12.035554 -6.4695611 -0.3564935 0
9.8058033 -5.2392426 -0.4975647 0
8.1109915 -4.3089757 -0.57337403 0
5.8962336 -3.1086104 -0.65441692 0
5.2263098 -2.7385128 -0.68973804 0
4.6513758 -2.4234219 -0.71001101 0
26.384129 -13.676322 0.97974336 0
16.070217 -8.2802191 -0.13493595 0
16.090227 -8.2402287 -0.1349726 0
12.110642 -6.1696281 -0.35176668 0
9.8608809 -4.989306 -0.49278852 0
9.8708878 -4.9693141 -0.49280646 0
8.1910648 -4.0940547 -0.5735631 0
5.9612932 -2.9586873 -0.65454364 0
5.2713666 -2.6035819 -0.68484986 0
5.2813711 -2.5935938 -0.68985796 0
5.286377 -2.5786009 -0.68987036 0
5.2913818 -2.5686078 -0.68987846 0
21.134853 -10.200023 1.381691 0
4.7164474 -2.2635186 -0.70513999 0
5.3013973 -2.5286231 -0.68491113 0
5.9963369 -2.8487408 -0.65463555 0
6.9762516 -3.2939146 -0.62425244 0
6.0163474 -2.8237562 -0.65465605 0
5.3114185 -2.4786484 -0.6849519 0
4.7814727 -2.2185748 -0.71517456 0
22.059896 -10.155691 0.85163009 0
16.220451 -7.4203606 -0.13071623 0
12.24582 -5.5697627 -0.34730241 0
12.25083 -5.5347652 -0.34233299 0
12.265838 -5.5097737 -0.3423551 0
12.270846 -5.4797807 -0.34238145 0
10.011056 -4.4394584 -0.48327097 0
8.3362093 -3.6742055 -0.56892478 0
8.3362169 -3.6492112 -0.568946 0
8.3462229 -3.6342189 -0.56895864 0
8.3562288 -3.6142263 -0.56897557 0
8.3662348 -3.5992341 -0.5689882 0
7.0763512 -3.0240283 -0.61947799 0
6.0714417 -2.5788622 -0.64985669 0
5.3915057 -2.2687597 -0.68011975 0
4.8265576 -2.0186756 -0.7053318 0
22.96007 -9.5509529 0.86607015 0
16.305635 -6.7304664 -0.12632751 0
12.340969 -5.0598688 -0.33774683 0
10.101159 -4.1095548 -0.48355338 0
10.111166 -4.0895624 -0.48357037 0
8.4413071 -3.3893118 -0.56916392 0
7.1264181 -2.8391018 -0.61962962 0
6.1115026 -2.4189298 -0.64498496 0
5.4365616 -2.1338327 -0.68022549 0
5.4265671 -2.1188366 -0.68023741 0
5.4365721 -2.1088443 -0.68024492 0
4.8566217 -1.8687534 -0.70044708 0
4.8616261 -1.8587604 -0.70045447 0
4.8616309 -1.8487662 -0.7004621 0
4.8516374 -1.8287702 -0.70047784 0
4.8716402 -1.8287798 -0.700477 0
4.8716459 -1.8137857 -0.70048857 0
4.8866491 -1.8087945 -0.70049179 0
4.8816552 -1.7937993 -0.70050335 0
24.215271 -8.8362932 0.88542688 0
25.365215 -9.1870041 0.28572032 0
25.345232 -9.1120062 0.28565571 0
25.235254 -9.0069904 0.28556591 0
16.470881 -5.8306208 -0.1221047 0
16.46089 -5.7956243 -0.12213486 0
24.740335 -8.6519089 0.28526294 0
24.685345 -8.5714197 0.8901943 0
16.480923 -5.6756444 -0.12223637 0
16.475933 -5.6356487 -0.12227026 0
16.495943 -5.6006584 -0.12229979 0
16.505953 -5.5606656 -0.12233341 0
16.500963 -5.5206704 -0.1223672 0
16.505974 -5.4806767 -0.12240076 0
12.531242 -4.1250811 -0.33353522 0
10.271396 -3.3547614 -0.4741793 0
8.5965099 -2.7845151 -0.56465554 0
7.2666001 -2.3343039 -0.615031 0
6.2416701 -1.9891316 -0.64031851 0
7.2866116 -2.3043191 -0.61505401 0
8.611536 -2.704541 -0.56471896 0
10.29644 -3.2148004 -0.47429225 0
10.301447 -3.1898067 -0.47431234 0
8.6265554 -2.6495569 -0.55976212 0
7.2916417 -2.2193451 -0.61011982 0
6.2567096 -1.8841753 -0.64039803 0
5.5667548 -1.6640759 -0.67558026 0
4.9567952 -1.4689801 -0.69574165 0
18.88599 -5.5451784 1.2026539 0
4.9718041 -1.4489948 -0.6957556 0
4.9718089 -1.4390006 -0.69576263 0
5.5717802 -1.5991061 -0.67562807 0
6.2817459 -1.7892207 -0.64046872 0
6.2867517 -1.7742275 -0.6404798 0
6.2967563 -1.7642353 -0.64048696 0
5.5868011 -1.5491322 -0.67566431 0
16.671219 -4.5708356 -0.11815262 0
10.371563 -2.8149071 -0.46960953 0
7.3617287 -1.9744451 -0.61030579 0
5.5968261 -1.4841595 -0.67071128 0
16.716269 -4.3808722 -0.11830613 0
10.4016 -2.694941 -0.46970305 0
7.3817587 -1.8894777 -0.61036944 0
6.3318162 -1.604306 -0.6406045 0
5.026886 -1.2591048 -0.69588912 0
36.140392 -8.9786348 1.1505079 0
16.78134 -4.1209226 -0.11851451 0
12.701542 -3.0903115 -0.32936695 0
8.6917381 -2.0897257 -0.5551939 0
6.356853 -1.5093515 -0.6406728 0
5.0269198 -1.1791459 -0.69594455 0
36.805508 -8.5444651 0.28515279 0
16.826408 -3.8609693 -0.11872098 0
10.4567 -2.3700306 -0.46995291 0
7.41184 -1.6595641 -0.61053908 0
5.6419225 -1.2442789 -0.67088079 0
16.85146 -3.6660016 -0.11887434 0
10.451737 -2.2450581 -0.47004804 0
8.721817 -1.8497962 -0.5503732 0
7.4468746 -1.5596055 -0.61061144 0
6.3969231 -1.3244346 -0.64080429 0
5.6569581 -1.1543227 -0.67094314 0
16.91153 -3.4060512 -0.11907685 0
10.471788 -2.0800977 -0.46517196 0
7.45191 -1.4596409 -0.61068344 0
5.6769824 -1.0943557 -0.67098379 0
5.0770102 -0.96426696 -0.69608951 0
12.796739 -2.40046 -0.32489696 0
8.7368927 -1.6148676 -0.55054533 0
7.4769449 -1.3596803 -0.61075449 0
5.6720138 -1.0143861 -0.66603851 0
17.051636 -3.0011377 -0.11938739 0
12.816787 -2.2304971 -0.32502457 0
10.481874 -1.7951673 -0.46538308 0
8.756938 -1.4749112 -0.55064631 0
6.4320192 -1.0645419 -0.6359849 0
5.6820478 -0.92942888 -0.66609526 0
5.0920715 -0.81934208 -0.69118452 0
5.1020761 -0.80935359 -0.69619083 0
33.941212 -5.2984695 1.0825505 0
17.191732 -2.6412196 -0.1246596 0
12.856868 -1.9455568 -0.32523689 0
10.496945 -1.5602181 -0.46055546 0
8.7870016 -1.2849684 -0.55078268 0
7.5020432 -1.0797729 -0.60595179 0
6.4570785 -0.90960419 -0.63609135 0
5.7121038 -0.78949571 -0.67118943 0
5.1121244 -0.69440722 -0.69626677 0
5.1071301 -0.6794076 -0.69127703 0
33.586422 -4.4084134 1.0668448 0
33.55645 -4.333992 0.28178599 0
33.646465 -4.2690082 0.28173596 0
33.71648 -4.1990204 0.28168201 0
33.806496 -4.1290369 0.28162843 0
33.886509 -4.0690513 0.28158224 0
33.921528 -3.9940567 0.28152445 0
34.111542 -3.9390914 0.28148338 0
34.286556 -3.879123 0.28143853 0
17.691917 -1.9563713 -0.13517672 0
12.902026 -1.3956326 -0.32564637 0
10.527082 -1.1152992 -0.46088019 0
8.7971239 -0.91004819 -0.54605079 0
6.4821754 -0.6496942 -0.63626814 0
5.1372061 -0.49949673 -0.69639289 0
12.922074 -1.2256576 -0.32576993 0
10.537126 -0.97032487 -0.4609836 0
8.8221607 -0.79507846 -0.54613054 0
7.5321898 -0.65489185 -0.60624683 0
6.4872117 -0.54972827 -0.63633442 0
5.7472286 -0.47462422 -0.67139637 0
53.701462 -4.3180447 6.5719347 0
12.962139 -0.99569315 -0.3259348 0
8.8222055 -0.65510857 -0.5462271 0
7.5422297 -0.5399254 -0.60632384 0
5.742259 -0.39464891 -0.66644776 0
6.5072541 -0.43476975 -0.63640928 0
7.527247 -0.4899362 -0.60635734 0
8.8272371 -0.55513084 -0.54629529 0
10.537223 -0.64038038 -0.46121457 0
12.977201 -0.76572406 -0.32609746 0
10.537237 -0.59538847 -0.46124545 0
12.987217 -0.71073294 -0.32613584 0
19.027166 -1.001696 -0.16086268 0
33.362041 -1.6939379 0.27978429 0
53.69178 -2.6562028 9.1156874 0
5.7673078 -0.26970577 -0.6715256 0
8.8272858 -0.40016514 -0.54639924 0
16.517227 -0.72121984 -0.10608909 0
16.542223 -0.69539863 1.0488933 0
5.1573272 -0.20463003 -0.69657481 0
5.7773271 -0.21972698 -0.67155635 0
5.1673369 -0.17964177 -0.69658995 0
53.046959 -1.7961786 9.0000477 0
53.477009 -1.6780188 6.5299654 0
52.987007 -1.5661776 8.9898787 0
19.827286 -0.51687878 -0.18119857 0
55.512054 -1.3822677 8.0847692 0
5.1623635 -0.11467086 -0.69662809 0
5.7823658 -0.11476686 -0.67162049 0
6.4873676 -0.11486684 -0.6316123 0
8.8423653 -0.14522359 -0.54656661 0
13.057358 -0.19081227 -0.33149257 0
13.062365 -0.16081665 -0.33151284 0
20.157358 -0.21195833 -0.19140813 0
55.362259 -0.50410801 5.4441338 0
5.1673956 -0.034706656 -0.69667482 0
53.647255 -0.27031526 10.388951 0
6.5074039 -0.014907168 -0.63667333 0
7.4974084 -5.5469005e-05 -0.59667313 0
7.5024128 0.0099356081 -0.60167873 0
7.4724174 0.024939787 -0.59668815 0
6.512424 0.045073066 -0.63670981 0
5.1724272 0.045257539 -0.69672072 0
54.667469 0.5909822 5.3783493 0
57.427486 0.74663293 6.9832649 0
5.1774406 0.080241755 -0.69674075 0
5.1824455 0.095235921 -0.69674957 0
5.797452 0.11513942 -0.6767565 0
5.1824541 0.11522597 -0.69676054 0
5.1724596 0.1302226 -0.69676948 0
5.1924639 0.14021073 -0.70177472 0
56.782654 1.6167024 6.9126515 0
54.552681 1.6760099 5.3675909 0
32.132626 1.0812911 0.27780998 0
21.682581 0.78271538 -0.22707137 0
10.557523 0.40943742 -0.46190616 0
10.577529 0.43443009 -0.46192178 0
10.592536 0.4594236 -0.4619374 0
10.587542 0.47942048 -0.46194974 0
8.8175354 0.42465648 -0.54692507 0
7.4825311 0.37984255 -0.59690356 0
6.5125275 0.34497368 -0.636886 0
5.8075271 0.32505992 -0.67687643 0
5.1825256 0.30014277 -0.70186269 0
30.612782 1.8415484 0.27728805 0
22.122711 1.3876147 -0.23746726 0
13.167626 0.85903966 -0.33717504 0
10.577606 0.71938252 -0.46209833 0
8.792592 0.61962116 -0.54204249 0
7.4625826 0.54480052 -0.59700012 0
6.5125761 0.48992306 -0.64196837 0
5.1775651 0.40509889 -0.70191908 0
13.192677 1.0690113 -0.33730569 0
8.8026257 0.73459041 -0.54711008 0
6.5126009 0.56489944 -0.64201045 0
5.1875863 0.4600724 -0.70194757 0
13.212712 1.2139872 -0.34239438 0
8.7826529 0.82957226 -0.54716539 0
6.5076246 0.63487667 -0.64204872 0
5.1676083 0.52005082 -0.70197916 0
13.237748 1.3639657 -0.3424854 0
8.7826815 0.92955071 -0.54722309 0
6.5326486 0.70984554 -0.6470896 0
5.1676297 0.57502586 -0.70200694 0
13.252785 1.5189461 -0.34257886 0
8.777709 1.02953 -0.54728031 0
6.5076718 0.77982932 -0.64212704 0
5.1676512 0.635001 -0.70203757 0
13.26782 1.668923 -0.3476679 0
8.7627363 1.1245111 -0.54733348 0
6.4976954 0.85480732 -0.64216721 0
5.1726723 0.68997192 -0.70706451 0
13.277855 1.8189043 -0.34775594 0
8.7477627 1.219492 -0.54738605 0
6.4927182 0.92478448 -0.64220345 0
5.1426926 0.74495518 -0.70209122 0
34.823387 5.1414137 1.0902008 0
24.653166 3.6971087 -0.30390796 0
13.297903 2.028877 -0.34787747 0
8.7528009 1.3594611 -0.54746294 0
6.4827509 1.0247529 -0.64225483 0
5.1427226 0.82992017 -0.70213306 0
13.302938 2.1838558 -0.35296634 0
8.7278261 1.4544435 -0.54751396 0
6.472774 1.0997276 -0.64729321 0
5.117743 0.88489926 -0.70215881 0
13.332973 2.3388338 -0.35305408 0
8.7128534 1.5544242 -0.54756749 0
6.4677963 1.1697047 -0.6473279 0
5.1227632 0.93987358 -0.70218408 0
13.338007 2.4938126 -0.3581408 0
8.7128801 1.6544026 -0.54762018 0
6.4478183 1.2396841 -0.64736211 0
5.1277843 0.99984455 -0.70721209 0
13.353041 2.6487932 -0.35822651 0
8.6779051 1.7443866 -0.54766607 0
6.417841 1.3096682 -0.64239585 0
5.0878043 1.054829 -0.70223677 0
13.348074 2.7987769 -0.35830799 0
10.477988 2.224138 -0.4729515 0
8.6429358 1.8593659 -0.5477246 0
7.3278971 1.59453 -0.59755933 0
6.4178724 1.4146317 -0.64744651 0
5.0728316 1.1297963 -0.7022692 0
28.44363 6.411871 0.27448696 0
13.338127 3.0487478 -0.36344263 0
10.473035 2.419107 -0.47305319 0
8.6379766 2.0193322 -0.54780531 0
7.3179355 1.7294917 -0.60262513 0
6.3979077 1.5295969 -0.64750028 0
5.6778855 1.369678 -0.68239987 0
5.0628681 1.2347528 -0.70231509 0
8.6080055 2.1343076 -0.55286157 0
5.6529026 1.4196653 -0.67742193 0
10.45809 2.6590662 -0.47817484 0
6.3679414 1.6395633 -0.64754951 0
14.34325 3.7393825 0.96617436 0
10.433112 2.7540541 -0.4782221 0
7.2729945 1.9394388 -0.602723 0
5.6379347 1.5196253 -0.68246484 0
5.637939 1.5346204 -0.68247163 0
6.3329716 1.7395352 -0.64759398 0
5.6179466 1.5546136 -0.68247914 0
14.288301 3.9943576 0.96604514 0
13.278273 3.7536747 -0.36880586 0
10.408161 2.9690218 -0.47832701 0
7.2430348 2.089402 -0.60279131 0
5.6079717 1.6345857 -0.68251336 0
28.413952 8.3664341 -0.41657749 0
10.398189 3.0940003 -0.4833875 0
8.5281134 2.5592239 -0.5530616 0
7.218061 2.1843779 -0.60283279 0
6.3030257 1.9244776 -0.64767349 0
13.288343 4.1086326 -0.37398246 0
8.4931364 2.6542072 -0.5531044 0
6.2830424 1.9794614 -0.64769614 0
4.9629874 1.579612 -0.70245349 0
13.308375 4.2736125 -0.37406316 0
8.4881601 2.7541831 -0.55814946 0
6.2580633 2.0494411 -0.64772463 0
4.9380054 1.6295904 -0.7024709 0
13.313407 4.4435916 -0.37914571 0
8.4681845 2.8541639 -0.5581938 0
7.1481261 2.4243159 -0.60793447 0
5.5280538 1.8944939 -0.68261588 0
26.789091 9.2520733 0.27301851 0
10.3383 3.6039207 -0.48862186 0
7.1331487 2.5092938 -0.60796893 0
6.1981072 2.1993957 -0.64778221 0
4.9080472 1.7545382 -0.70251584 0
10.318326 3.7289019 -0.4886761 0
7.1231709 2.5942707 -0.60800278 0
6.1831279 2.2693729 -0.64780807 0
4.8930664 1.8095113 -0.70753419 0
29.584347 11.04123 -0.46295157 0
8.4182606 3.1690943 -0.5633235 0
5.4531116 2.0744281 -0.68267822 0
13.328533 5.1085076 -0.38944694 0
13.31854 5.1435046 -0.38946244 0
10.278384 3.9988568 -0.4937894 0
7.0632176 2.7692261 -0.60806823 0
5.433135 2.1494002 -0.68270373 0
30.284494 12.071115 -0.48346415 0
13.333578 5.3584771 -0.39455768 0
13.348586 5.3984709 -0.3945758 0
30.254524 12.291115 -0.48856369 0
4.8231211 1.9694462 -0.70258427 0
4.8231254 1.9844381 -0.70758998 0
45.265377 18.688526 7.1477728 0
30.214565 12.586118 -0.48869571 0
10.233446 4.2988081 -0.49891135 0
13.343628 5.6334424 -0.39967498 0
10.228456 4.3487997 -0.4989312 0
6.9982772 2.9991639 -0.61315167 0
6.0582275 2.614265 -0.6479274 0
6.9782853 3.0291569 -0.61316168 0
6.9682884 3.0391536 -0.61316371 0
6.038238 2.6492529 -0.64793718 0
6.023242 2.6592498 -0.64793944 0
6.9633017 3.0941393 -0.61318409 0
6.963306 3.1091347 -0.61318898 0
10.168501 4.563766 -0.50401294 0
44.225529 19.902271 4.7922735 0
5.3382177 2.4143009 -0.68278646 0
6.003262 2.7342274 -0.64796484 0
8.2734022 3.7839644 -0.57355678 0
8.2634068 3.7989612 -0.57356107 0
6.9133301 3.2041121 -0.61322033 0
6.9383359 3.2341011 -0.61823344 0
5.3082399 2.4892712 -0.68780911 0
4.723208 2.2293317 -0.70765924 0
30.284803 14.376966 1.0505126 0
4.7382159 2.2593167 -0.71266985 0
5.2882547 2.5392535 -0.68782389 0
5.9382997 2.8641856 -0.64800286 0
6.8733621 3.3290756 -0.61825991 0
6.8883672 3.3540685 -0.61827004 0
5.9183106 2.9041734 -0.64801455 0
5.2582726 2.5942316 -0.68783772 0
5.9133186 2.9341638 -0.64802408 0
5.9083219 2.9441566 -0.65302598 0
8.1734724 4.0939002 -0.57866251 0
44.445816 22.287926 6.0712252 0
5.9083304 2.9791465 -0.65303814 0
29.194853 14.756228 -0.48957619 0
4.6582532 2.3642724 -0.70769298 0
8.1634855 4.1538877 -0.57868254 0
13.538844 6.9232712 -0.4352127 0
43.525829 22.344805 0.26625827 0
43.775856 22.59041 1.411139 0
4.6382666 2.404254 -0.70770192 0
5.1983075 2.709188 -0.68786693 0
5.8483553 3.0641191 -0.65305924 0
8.1285124 4.2738638 -0.57872188 0
29.044924 15.326241 -0.48979822 0
33.545219 17.744526 6.5038862 0
5.8333664 3.1041057 -0.65306997 0
13.563894 7.2432351 -0.44033805 0
40.565723 21.708147 5.6367397 0
6.7684383 3.6389935 -0.62335563 0
41.560818 22.390669 1.3613813 0
38.215588 20.654989 8.4523325 0
44.521023 24.162666 14.79043 0
39.940723 21.718185 5.5767827 0
39.910728 21.790577 9.9317427 0
8.0735455 4.4288311 -0.58377004 0
13.618935 7.5032001 -0.45044056 0
41.780899 23.115044 0.26606998 0
34.430393 19.118479 4.8682604 0
4.5633144 2.5491903 -0.70773435 0
37.255608 20.875559 9.3423204 0
6.7284746 3.7939517 -0.62840247 0
8.0335703 4.5488081 -0.58380711 0
6.7084823 3.8239443 -0.62841022 0
13.603977 7.7781734 -0.45554224 0
28.625055 16.421278 -0.49519888 0
40.930943 23.58135 2.4709556 0
4.5433397 2.6341536 -0.71275628 0
6.6884971 3.8839276 -0.62842548 0
28.570082 16.651279 -0.50028431 0
36.515659 21.348366 5.2072077 0
35.110569 20.618956 5.9876146 0
32.605396 19.249048 5.5883641 0
32.230381 19.133581 4.6434402 0
4.5083594 2.6941261 -0.71276748 0
4.5083632 2.7091208 -0.71277201 0
4.4983659 2.7141171 -0.71277106 0
5.0334091 3.0490594 -0.68794596 0
5.673461 3.4539917 -0.65815783 0
7.9286323 4.8437481 -0.58889246 0
6.6185389 4.063879 -0.63347352 0
13.669072 8.4230986 -0.47578028 0
32.47049 20.063089 3.8280642 0
38.715965 24.019405 7.750988 0
40.286098 25.128778 6.93542 0
38.585979 24.17441 7.7459421 0
4.9884362 3.1440208 -0.69296598 0
4.9784398 3.154017 -0.69296741 0
5.6184921 3.5739527 -0.65818453 0
5.6184959 3.5889475 -0.65818822 0
5.5984983 3.5939448 -0.65818679 0
4.9634538 3.2039981 -0.69297826 0
5.5935063 3.6289353 -0.65819681 0
6.5285835 4.2538314 -0.63351941 0
7.8136883 5.1136932 -0.59396374 0
9.7688465 6.4234805 -0.54464138 0
9.7738504 6.4534755 -0.54465091 0
9.7638559 6.4784722 -0.54465783 0
7.7937045 5.1986742 -0.5989871 0
7.778708 5.2136712 -0.59898961 0
9.7938728 6.5934534 -0.54969907 0
7.7637157 5.2536635 -0.59899986 0
9.7788811 6.643446 -0.54971266 0
41.806461 28.49069 1.4390203 0
37.051083 25.319448 7.6406765 0
4.8684955 3.3439417 -0.69299984 0
6.4336262 4.4387808 -0.63855934 0
9.7589006 6.7584286 -0.55474687 0
12.054091 8.3737555 0.61443061 0
12.034093 8.3848143 2.6844327 0
7.7137437 5.3936334 -0.60403454 0
12.054101 8.4444523 1.9944093 0
11.9991 8.435545 4.1144142 0
11.9691 8.4244518 1.984427 0
11.889096 8.3882389 -0.4055548 0
4.8435163 3.4239111 -0.69801676 0
11.929104 8.4514933 5.9844213 0
37.071186 26.337805 4.5053082 0
32.270798 23.009518 6.7770233 0
32.140797 23.020012 7.7170177 0
4.8235297 3.4738927 -0.69802606 0
4.2934895 3.1089361 -0.72283661 0
4.2784925 3.113935 -0.71783531 0
4.2834954 3.1289268 -0.72283912 0
27.475466 20.201351 -0.52145505 0
27.465473 20.281349 -0.52647984 0
14.004337 10.392883 -0.54148293 0
6.2886853 4.6987109 -0.6436094 0
4.7585588 3.5738506 -0.70303941 0
4.7485614 3.5838466 -0.70304024 0
4.2185192 3.1988943 -0.71784317 0
43.541927 33.1394 9.2522049 0
7.5288181 5.7785578 -0.6091187 0
5.3136296 4.1037741 -0.66827857 0
13.919392 10.817853 -0.54660583 0
6.198719 4.848671 -0.64363456 0
37.026451 29.075605 10.269366 0
4.1585464 3.2838509 -0.72285008 0
13.819413 10.992845 -0.55164659 0
7.4488511 5.9585214 -0.61415637 0
5.2536592 4.2237344 -0.66829681 0
35.971428 29.021145 11.214522 0
7.4188619 6.0135107 -0.6141659 0
6.1137486 4.9836359 -0.64365542 0
4.6036158 3.7687714 -0.69805574 0
13.709452 11.302825 -0.55672359 0
7.3788805 6.1184883 -0.61918771 0
4.5786295 3.8237505 -0.70306516 0
13.634469 11.442819 -0.55675364 0
7.3238926 6.1784754 -0.61919308 0
6.0287781 5.1135979 -0.64867187 0
5.1436996 4.3836775 -0.67331398 0
13.539491 11.62281 -0.5567925 0
5.9887905 5.1735821 -0.64867985 0
5.1037116 4.4286609 -0.6733166 0
4.003612 3.4937508 -0.72286332 0
7.2439251 6.3634386 -0.62422776 0
4.4736671 3.9536939 -0.70307064 0
13.484534 12.002783 -0.5668956 0
7.2139406 6.4534197 -0.62924623 0
4.4436793 3.9986758 -0.70307422 0
9.1941442 8.3282137 -0.59011555 0
5.853827 5.3335361 -0.64869201 0
4.4036903 4.0336595 -0.70307291 0
3.9136465 3.6036963 -0.7228657 0
9.0941601 8.4282017 -0.59012532 0
4.9437585 4.6085954 -0.6733247 0
3.8786578 3.6386788 -0.72286522 0
13.619626 12.842705 -0.60215819 0
7.0689845 6.7033706 -0.63428271 0
4.3187156 4.1186204 -0.70307195 0
8.9991894 8.6381741 -0.59516251 0
5.7188663 5.5234823 -0.65370989 0
4.2787266 4.1536036 -0.70306981 0
8.9542046 8.7531576 -0.60018468 0
4.8487949 4.7685404 -0.6783396 0
3.7836907 3.7386241 -0.72286046 0
6.9040155 6.8683338 -0.63428831 0
4.2237463 4.2285719 -0.70307195 0
13.609717 13.71264 -0.62739623 0
6.8340268 6.9283223 -0.63428974 0
4.1887574 4.2685542 -0.70307148 0
8.7642403 8.9981251 -0.60520995 0
4.7388253 4.8884945 -0.67833853 0
13.544754 14.077616 -0.6374824 0
5.5339203 5.7834077 -0.65872717 0
3.6587276 3.8485615 -0.72284949 0
6.7040563 7.0982862 -0.63430071 0
4.0887837 4.3535113 -0.70306277 0
8.6392756 9.2630901 -0.61024868 0
4.6388531 5.0034494 -0.68333864 0
13.47981 14.647578 -0.65762091 0
5.4239497 5.9283652 -0.66373408 0
3.5737538 3.9285159 -0.72284091 0
6.5890875 7.2882462 -0.63931811 0
3.9888098 4.4434676 -0.70305502 0
8.5343132 9.5680504 -0.62030137 0
4.5388813 5.1234069 -0.68333936 0
13.354858 15.172549 -0.66773152 0
5.3139777 6.0683227 -0.66873682 0
3.4837797 4.0084705 -0.72283125 0
6.464118 7.4832072 -0.64433491 0
3.893836 4.5384231 -0.70304811 0
8.3793459 9.8280153 -0.63032997 0
4.4439087 5.243361 -0.68833828 0
13.234909 15.727516 -0.68784797 0
5.1990047 6.208282 -0.66873741 0
3.3988049 4.0834241 -0.72281826 0
5.1440115 6.2332716 -0.66873002 0
46.368748 56.515503 1.9498135 0
4.3339305 5.3233242 -0.68832386 0
6.2541595 7.7431483 -0.65434122 0
3.728879 4.6883454 -0.70802832 0
3.6788912 4.728323 -0.70801997 0
3.6189022 4.7583036 -0.70300734 0
3.1438632 4.2333131 -0.71776557 0
3.2042212 7.7531099 -0.70394623 0
7.3200545 17.907711 -0.62760282 0
3.1442556 7.7629652 -0.70375359 0
2.0090547 4.9979897 -0.73769248 0
3.8544369 9.6977625 -0.69922447 0
2.5592418 6.4826984 -0.70292938 0
2.2191858 5.6577106 -0.72265446 0
10.485683 26.923756 4.3304696 0
10.315663 26.663744 4.2855754 0
6.760025 17.657412 -0.60649979 0
3.7094784 9.7625866 -0.69894552 0
2.1441979 5.6876812 -0.72262871 0
5.0547423 13.562467 -0.73513281 0
2.4142611 6.5326519 -0.70288038 0
6.3500051 17.382406 -0.59130931 0
2.8593583 7.8926039 -0.70329106 0
1.8241688 5.0826578 -0.73739624 0
3.5044968 9.8775434 -0.70389247 0
2.0192184 5.7376323 -0.72258532 0
4.7597566 13.697432 -0.74005783 0
2.2742815 6.6026039 -0.70283687 0
1.7441829 5.1076231 -0.73736584 0
5.7749839 17.077396 -0.56605542 0
2.6693785 7.9675546 -0.70323145 0
1.9142336 5.7625947 -0.71754539 0
10.06088 30.627348 0.26985219 0
10.00588 30.70212 -0.48014644 0
5.4799752 16.952387 -0.55593181 0
4.4447727 13.862391 -0.74497819 0
2.5443909 8.0125217 -0.70819199 0
2.0993037 6.657547 -0.70277452 0
1.8092493 5.7975554 -0.71750832 0
8.800724 28.492388 0.27068749 0
8.7257195 28.447388 0.27072358 0
8.6807241 28.547384 0.27071628 0
5.0149546 16.632374 -0.53570867 0
4.969954 16.627373 -0.53569329 0
4.924953 16.607368 -0.53567338 0
4.8899531 16.612368 -0.53066111 0
4.8499537 16.622366 -0.53065014 0
4.0447865 13.992348 -0.74486172 0
4.0097861 13.977346 -0.73984528 0
4.7549605 16.722353 -0.53563762 0
4.7249603 16.72735 -0.53562522 0
3.9247904 14.027333 -0.74482369 0
1.8643334 6.7324691 -0.70269036 0
3.8297927 14.047323 -0.74479353 0
2.7695568 10.247393 -0.7136848 0
1.7993398 6.7374501 -0.70266521 0
4.4499717 16.912321 -0.54056597 0
2.1244318 8.1574106 -0.70805085 0
4.3599796 17.03231 -0.54555774 0
2.5695648 10.24736 -0.70861077 0
2.519572 10.317345 -0.71360278 0
1.6143649 6.8223844 -0.70760214 0
-1.3553118 8.4414482 -0.72165847 0
-1.7702413 10.466438 -0.71192372 0
-1.05538 6.0663996 -0.73126698 0
-1.0753779 6.0313888 -0.72624981 0
-1.110374 6.0513768 -0.73124027 0
-4.4448204 23.781532 -0.28372243 0
-1.6002952 8.4413729 -0.72655654 0
-1.165367 6.0613523 -0.7362175 0
-1.0453868 5.3563404 -0.75111413 0
-4.9947796 25.261919 2.6761625 0
-4.8248162 24.081654 0.84634185 0
-4.7498379 23.391491 -0.27854702 0
-4.814837 23.446486 -0.27853766 0
-5.7047176 27.491579 0.27593452 0
-5.1748004 24.736954 3.2263234 0
-4.8548536 22.961832 2.466578 0
-5.2648048 24.646936 3.2213707 0
-1.1553705 5.3612871 -0.75606799 0
-1.5253208 7.0012951 -0.72627962 0
-2.8501453 12.991337 -0.6520611 0
-5.0848546 23.036804 2.4766345 0
-1.1903653 5.3562689 -0.75605178 0
-1.5703163 6.9962773 -0.72626019 0
-2.9401441 12.96632 -0.65202749 0
-5.2298613 22.871429 -0.26829454 0
-5.2548642 22.801491 0.27673095 0
-7.4146094 31.861643 1.0355909 0
-5.3798604 22.971972 4.1517425 0
-1.435334 6.0812392 -0.74611259 0
-1.6653074 6.9762416 -0.73122001 0
-4.4349871 18.456327 -0.60765672 0
-5.5348668 22.816395 -0.26818833 0
-5.6348619 23.036526 0.82680082 0
-5.6148682 22.816927 4.1368446 0
-1.7303013 6.9712176 -0.7311945 0
-3.1951413 12.796263 -0.64190543 0
-5.8598576 23.27644 0.27682108 0
-5.1849327 20.486776 3.2471776 0
-2.1302595 8.3512096 -0.73134398 0
-3.6151047 14.081283 -0.40203115 0
-6.2648325 24.286711 2.6167495 0
-1.3903364 5.356173 -0.76596868 0
-2.6952035 10.301208 -0.71655631 0
-6.2998447 23.911413 0.27682951 0
-6.3798413 24.066753 3.1818283 0
-1.8552891 6.9561701 -0.73114276 0
-5.094974 18.986259 -0.63755536 0
-6.4548483 23.861395 0.27688685 0
-6.1948771 22.771833 4.1520314 0
-2.2802489 8.3311625 -0.7312845 0
-6.4148636 23.316511 1.4069843 0
-1.6703061 6.0411377 -0.75101173 0
-5.2399783 18.841236 -0.63248265 0
-5.779932 20.681635 2.7823203 0
-6.7198496 23.917048 6.1619496 0
-2.9001954 10.241154 -0.71647394 0
-6.6898618 23.516483 1.4170288 0
-1.7252996 6.0311141 -0.75098813 0
-2.395241 8.3111267 -0.73123956 0
-6.3549027 21.931273 -0.25275967 0
-1.5503134 5.3360953 -0.76589894 0
-1.7702944 6.031096 -0.75097108 0
-3.0151908 10.206123 -0.71642816 0
-9.6246481 32.446472 1.0611298 0
-1.7952911 6.0310831 -0.75595987 0
-2.4852347 8.2860956 -0.73120129 0
-5.5899882 18.501177 -0.62230635 0
-6.6749063 21.921236 -0.25266299 0
-6.6499109 21.751629 3.4723711 0
-2.5452311 8.2710791 -0.7311784 0
-6.8149042 22.046223 -0.25764462 0
-6.6199222 21.306545 2.8824499 0
-1.8802814 6.0060472 -0.75592351 0
-3.1951828 10.156075 -0.7163564 0
-8.8397684 27.996593 3.0167785 0
-1.9002783 5.991035 -0.75091064 0
-3.2401812 10.136064 -0.71633768 0
-7.2648935 22.63125 0.27737483 0
-6.8799248 21.311504 2.8925271 0
-6.6549439 20.486586 3.8176272 0
-8.0048542 24.461748 5.1272202 0
-2.7102196 8.2210236 -0.73110962 0
-6.10499 18.436104 -0.62713552 0
-7.0949254 21.346472 2.9025855 0
-1.9952668 5.9709921 -0.75586939 0
-2.7652156 8.2210054 -0.7360884 0
-7.6948967 22.731207 0.27747929 0
-1.785279 5.2559743 -0.76578724 0
-2.805213 8.2109928 -0.73607337 0
-6.279994 18.286072 -0.62205267 0
-12.374617 35.831459 2.0462544 0
-1.8202738 5.2509556 -0.76577139 0
-2.0752573 5.9409556 -0.75583291 0
-4.3051214 12.261008 -0.63143373 0
-7.7949142 22.066162 0.27764142 0
-1.8602685 5.2409368 -0.77075493 0
-2.4302337 6.8159456 -0.73589897 0
-3.605165 10.050966 -0.71619701 0
-10.974744 30.431204 0.27690819 0
-8.519887 23.551525 4.3925676 0
-2.4752293 6.7959275 -0.73587883 0
-7.6249423 20.841072 -0.23716596 0
-9.6198349 26.17627 1.5773613 0
-7.6199479 20.596289 2.3278866 0
-7.3799639 19.821314 2.7479715 0
-2.5352235 6.7709026 -0.73585212 0
-4.5701156 12.145947 -0.62632704 0
-7.769949 20.586309 2.8479326 0
-2.2402375 5.8958821 -0.7557621 0
-3.7951567 9.9559097 -0.71611452 0
-7.9299479 20.681025 -0.23704538 0
-6.9949965 18.166243 2.5531883 0
-2.2752326 5.8808637 -0.7557441 0
-3.8601534 9.930891 -0.71608794 0
-9.7748671 25.006081 0.27762958 0
-2.3052292 5.8758512 -0.75573254 0
-5.3800812 13.665933 -0.40638897 0
-8.6699266 21.96137 4.1579223 0
-2.6702099 6.7258468 -0.73579323 0
-8.1399555 20.415985 -0.23193273 0
-8.0149632 20.026224 2.7981145 0
-3.2401822 8.0608444 -0.73589194 0
-9.0999174 22.546074 0.84292161 0
-13.029741 32.181709 7.6571283 0
-5.5650778 13.685901 -0.41133794 0
-8.6449432 21.186176 2.4130642 0
-2.7502022 6.7058153 -0.74076128 0
-12.71977 30.936131 1.0522959 0
-2.4002163 5.8158016 -0.75568342 0
-4.9601064 11.965851 -0.62616873 0
-7.6449933 18.376036 1.2083334 0
-10.774863 25.791435 5.5427465 0
-5.005105 11.930838 -0.62614703 0
-8.0899801 19.180992 0.76329786 0
-8.6499577 20.441238 3.9232147 0
-4.1551404 9.7708035 -0.71096146 0
-8.1999788 19.215977 0.76332343 0
-2.1902177 5.1157579 -0.77059698 0
-3.435168 7.9757752 -0.73580909 0
-9.5399323 22.085987 0.8381356 0
-8.7099657 20.061077 2.3183026 0
-2.2352121 5.1207399 -0.7705822 0
-3.4951637 7.9657569 -0.73578775 0
-8.6749725 19.700872 -0.22164151 0
-8.619976 19.506042 2.2683876 0
-10.7549 24.231342 5.9130445 0
-5.2650981 11.810773 -0.62604392 0
-8.6799784 19.375956 1.2684253 0
-2.2852037 5.0857086 -0.77055442 0
-4.3601303 9.6607389 -0.71087313 0
-8.904974 19.645838 -0.2215651 0
-8.7999802 19.31093 1.2684726 0
-2.3201981 5.0756898 -0.77053869 0
-3.6401532 7.9207058 -0.74072957 0
-10.329934 22.395908 0.85329068 0
-10.769921 23.276205 5.1082306 0
-5.4550934 11.735726 -0.62597334 0
-8.8749847 19.030897 1.258548 0
-2.6801813 5.7256699 -0.76056218 0
-5.4950919 11.700713 -0.62595248 0
-9.5349674 20.230995 2.8884971 0
-2.7101779 5.7206573 -0.76055098 0
-6.3950653 13.450727 -0.41604736 0
-10.984928 23.06106 3.8683453 0
-3.1451621 6.5756516 -0.7455951 0
-9.2899809 19.340765 -0.22140136 0
-9.9099646 20.55093 2.4085367 0
-2.7601712 5.6956325 -0.76052761 0
-5.6550879 11.630674 -0.62589228 0
-11.124934 22.82098 3.2434263 0
-11.164934 22.81617 6.2984271 0
-10.149963 20.675808 0.81357396 0
-10.709949 21.746063 4.8435087 0
-14.504849 29.316393 9.6580667 0
-9.744978 19.635878 2.3236663 0
-2.8251626 5.6706009 -0.76049912 0
-5.7800841 11.56564 -0.62584221 0
-11.584934 23.121012 4.5284915 0
-11.504937 22.861116 6.3435068 0
-9.7499828 19.31073 0.27872831 0
-2.5251663 4.9855766 -0.77544332 0
-3.9451292 7.7605901 -0.74059689 0
-9.8599834 19.305716 0.27875727 0
-2.5501626 4.975564 -0.77543271 0
-4.880105 9.4905891 -0.71568012 0
-10.58497 20.520767 1.3537185 0
-11.719943 22.656021 5.6986008 0
-5.9450793 11.445594 -0.62077105 0
-10.369977 19.915831 2.8987811 0
-11.319956 21.645981 5.468688 0
-9.7599936 18.590647 -0.21113339 0
-11.084965 21.070856 3.6237497 0
-4.0651197 7.7005444 -0.74054646 0
-10.274983 19.385662 0.27885273 0
-2.6301498 4.9505196 -0.7753967 0
-14.634893 27.406122 8.413455 0
-10.57998 19.750675 0.79886258 0
-2.6501462 4.9305067 -0.77538598 0
-6.1200733 11.345547 -0.62070215 0
-10.589983 19.575686 1.3189006 0
-3.0101357 5.550499 -0.76040661 0
-6.5600638 12.04055 -0.36071774 0
-10.639985 19.465742 2.8689344 0
-15.459891 28.191072 8.6935148 0
-10.659986 19.390657 1.3089523 0
-11.709966 21.230864 5.4338655 0
-10.164996 18.370573 -0.20598558 0
-2.7351351 4.9254689 -0.78035605 0
-5.1750889 9.2954903 -0.71055305 0
-10.439993 18.680582 0.27902749 0
-11.819968 21.105829 5.4189172 0
-10.304996 18.335548 -0.21094325 0
-13.419943 23.820793 4.7688274 0
-5.2350855 9.2604704 -0.71552825 0
-10.359997 18.270641 2.2390869 0
-12.239965 21.510803 5.5389462 0
-10.504996 18.41555 0.27909401 0
-12.619962 22.060738 4.4539537 0
-4.3400979 7.5504403 -0.74043286 0
-10.609996 18.410534 0.27912146 0
-2.8151207 4.8654175 -0.78031433 0
-5.3450794 9.2154369 -0.71548784 0
-11.359986 19.510546 0.80410433 0
-3.1901116 5.4654093 -0.76032877 0
-7.2350497 12.355453 -0.39059725 0
-11.364988 19.350611 2.8991392 0
-3.7151008 6.3054008 -0.75035107 0
-10.645 17.995493 0.27920541 0
-11.174994 18.850605 3.3591864 0
-4.4600878 7.4953942 -0.74038458 0
-11.544989 19.350523 1.3291817 0
-12.274979 20.515678 5.3591385 0
-10.735001 17.890469 0.27924928 0
-13.189968 21.91563 4.4791183 0
-5.5100703 9.1153831 -0.71542287 0
-11.124997 18.360491 1.2792593 0
-3.3050976 5.4353576 -0.76528573 0
-7.6200418 12.495397 -0.40552446 0
-12.464982 20.390562 3.6392179 0
-4.5650792 7.4403543 -0.74034309 0
-13.774967 22.415531 2.7341654 0
-3.3450923 5.4253383 -0.76526952 0
-6.8100505 11.005361 -0.6254462 0
-15.119955 24.360527 2.9541357 0
-3.3650889 5.4003253 -0.76525831 0
-4.6250734 7.395328 -0.74031556 0
-11.035003 17.580381 -0.20062143 0
-11.020004 17.480402 0.75939465 0
-14.459969 22.875532 4.7242494 0
-3.9350765 6.2003026 -0.75026095 0
-11.984995 18.810362 -0.24061754 0
-11.525 18.040436 2.779418 0
-3.4400785 5.3652859 -0.76522601 0
-7.0150428 10.900305 -0.62537265 0
-11.050005 17.125397 2.1794693 0
-3.9900701 6.1652765 -0.75023711 0
-11.230003 17.285326 -0.20052189 0
-12.039997 18.45536 1.3094611 0
-3.500071 5.3552599 -0.7702049 0
-10.485011 15.975296 -0.61046362 0
-11.100006 16.880369 2.6395264 0
-4.0400634 6.1252499 -0.75021315 0
-11.370005 17.170294 -0.20046771 0
-15.394974 23.190424 4.8544073 0
-4.8400545 7.2652407 -0.74022794 0
-11.500004 17.2153 0.75955689 0
-12.539996 18.720388 4.5245233 0
-7.2550344 10.795241 -0.63029146 0
-11.960001 17.730286 0.77457178 0
-12.479998 18.445343 3.9395704 0
-4.910048 7.225214 -0.74020147 0
-11.615004 17.040249 -0.20038825 0
-13.85999 20.290335 4.3145628 0
-4.1550503 6.0601969 -0.75516641 0
-11.715004 17.035231 -0.20036244 0
-12.754998 18.500301 3.9696243 0
-4.9750423 7.190187 -0.74017513 0
-12.245001 17.640234 0.77965266 0
-12.160002 17.475302 4.8046556 0
-12.410001 17.790218 0.27966329 0
-3.2500484 4.6501665 -0.79012072 0
-7.4550257 10.625177 -0.63021028 0
-12.944998 18.425249 3.44468 0
-6.165031 8.7451639 -0.72017324 0
-12.854999 18.195223 2.3596969 0
-4.2500386 5.9951506 -0.75512588 0
-12.360002 17.40019 0.77472156 0
-12.570001 17.645241 4.3597183 0
-7.5400219 10.550149 -0.62517488 0
-13.029999 18.195208 3.4247375 0
-5.1100302 7.1101332 -0.74512315 0
-12.73 17.685183 2.3147571 0
-12.300003 17.03021 4.7447653 0
-12.210003 16.860149 0.27977943 0
-3.3300333 4.5901146 -0.79008222 0
-7.5950174 10.43012 -0.62013924 0
-12.195003 16.710155 2.6948063 0
-12.615002 17.235184 5.3398013 0
-11.915004 16.225132 1.2198235 0
-3.8050265 5.1650958 -0.77507329 0
-8.275013 11.210101 -0.37012073 0
-13.020001 17.600132 3.3548369 0
-5.2150197 7.0250854 -0.74507809 0
-12.635002 16.985113 2.2548544 0
-14.064999 18.855141 5.8548408 0
-13.185001 17.635098 1.3048627 0
-3.850019 5.1350694 -0.77505279 0
-12.170003 16.185078 -0.19011527 0
-3.4050181 4.520062 -0.78504407 0
-21.874987 28.955141 10.684827 0
-12.425002 16.400068 1.239908 0
-3.8950136 5.1250496 -0.78003764 0
-12.180002 15.985053 -0.18507791 0
-13.725 17.965059 3.4599271 0
-3.9100101 5.1000361 -0.77502739 0
-7.8600049 10.215033 -0.62003696 0
-12.065001 15.625031 0.7399593 0
-11.960001 15.440025 3.4899714 0
-4.5300045 5.8300166 -0.75501347 0
-12.41 15.925013 0.7499826 0
-13.44 17.200018 4.3949814 0
-12.05 15.375004 -0.63000524 0
-11.88 15.125 2.9849999 0
-5.415 6.875 -0.745 0
-13.28 16.805 0.28 0
-12.76 16.110001 4.1500001 0
-7.895 9.9350004 -0.60500002 0
-12.45 15.64 3.0899999 0
-13.25 16.59 5.3100004 0
-12.965 16.184999 0.75999999 0
-4.0250001 5.0149999 -0.77499998 0
-7.9200001 9.8299999 -0.60500002 0
-15.325 18.985001 3.1299999 0
-14.365 17.74 5.6900001 0
-12.875 15.865 1.235 0
-12.425 15.265 3.99 0
-12.39 15.18 -0.63499999 0
-12.95 15.82 2.1849999 0
-4.6750002 5.6999998 -0.755 0
-13.25 16.1 0.76499999 0
-4.0949998 4.9650002 -0.77999997 0
-12.87 15.56 -0.19 0
-3.625 4.375 -0.79000008 0
-6.8649998 8.2550001 -0.72000003 0
-12.08 14.5 2.4849999 0
-5.6399999 6.75 -0.75 0
-13.905 16.6 0.78499997 0
-4.1350002 4.9250002 -0.77499998 0
-13.09 15.535 -0.19 0
-3.665 4.3400002 -0.79000008 0
-7.98 9.4300003 -0.58500004 0
-13.605 16.045 2.7349999 0
-5.6999998 6.6999998 -0.75 0
-14.34 16.825001 2.345 0
-12.92 15.11 4.5050001 0
-14.135 16.49 0.28 0
-12.63 14.7 3.9300001 0
-12.825 14.885 -0.63499999 0
-14.26 16.530001 3.865 0
-14.36 16.59 6.0250001 0
-12.32 14.2 2.0350001 0
-4.8800001 5.6100001 -0.76499999 0
-13.35 15.305 0.28 0
-3.7349999 4.2750001 -0.79000008 0
-8.0799999 9.2150002 -0.57500005 0
-14.285 16.254999 2.8050001 0
-14.15 16.049999 5.3500004 0
-14.52 16.43 1.3049999 0
-4.9299998 5.5700002 -0.76499999 0
-13.585 15.3 0.28 0
-13.145 14.77 4.0050001 0
-13.14 14.72 -0.63999999 0
-14.19 15.865 3.7749999 0
-14.48 16.129999 5.4150004 0
-13.885 15.43 0.75999999 0
-14.72 16.32 4.4200001 0
-17.834999 19.709999 7.9000001 0
-13.23 14.585 2.115 0
-14.955 16.440001 5.0050001 0
-13.975 15.315 -0.19999999 0
-3.845 4.21 -0.79500008 0
-8.0649996 8.7950001 -0.55499995 0
-15.74 17.135 3.55 0
-5.9650002 6.4749999 -0.75 0
-12.775 13.84 2.0350001 0
-5.0349998 5.4400001 -0.75999999 0
-14.695 15.83 0.28 0
-13.235 14.225 3.47 0
-6.0100002 6.4349999 -0.75 0
-12.99 13.885 2.0550001 0
-5.085 5.4200001 -0.76499999 0
-21.184999 22.525 1 0
-13.72 14.555 4.5300002 0
-14.905 15.77 -0.22499999 0
-14.665 15.485 4.3000002 0
-8.1999998 8.6350002 -0.55499995 0
-15.265 16.035 3.3899999 0
-14.43 15.11 5.75 0
-13.78 14.405 2.1400001 0
-5.145 5.3649998 -0.76499999 0
-9.5150003 9.8900003 0.28 0
-14.49 15.035 4.7200003 0
-15.595 16.139999 0.28 0
-14.22 14.69 4.1300001 0
-7.3299999 7.5450001 -0.70000005 0
-13.275 13.635 2.0550001 0
-15.915 16.290001 4.5700002 0
-7.355 7.5050001 -0.70000005 0
-13.88 14.14 3.0650001 0
-6.1950002 6.29 -0.75 0
-14.48 14.655 0.28 0
-17.49 17.665001 4.9650002 0
-8.2150002 8.2700005 -0.53499997 0
-14.76 14.84 3.72 0
-15.385 15.415 5.98 0
