# .PCD v0.7 - Point Cloud Data file format
VERSION 0.7
FIELDS x y z intensity
SIZE 4 4 4 4
TYPE F F F F
COUNT 1 1 1 1
WIDTH 1404
HEIGHT 1
VIEWPOINT 0 0 0 1 0 0 0
POINTS 1404
DATA ascii
-6.4980407 6.653697 -0.62006128 0
-15.595137 15.989914 2.2924469 0
-4.6836247 4.7628522 -0.68143129 0
-14.070656 14.332845 -0.24999663 0
-14.650465 14.913095 4.1524067 0
-7.4827499 7.5696135 -0.49918297 0
-15.360272 15.541988 2.7595992 0
-16.264992 16.425577 5.6806102 0
-15.71519 15.820231 1.2483541 0
-4.1787987 4.1676359 -0.70868182 0
-14.140708 14.152928 -0.24904773 0
-13.73084 13.708162 2.0280285 0
-4.7736216 4.7229629 -0.68618512 0
-17.529701 17.403696 0.77626878 0
-4.7886186 4.7229848 -0.68617451 0
-14.515644 14.347354 0.69017678 0
-4.793622 4.7030039 -0.68607306 0
-14.655623 14.410254 0.21491943 0
-15.545349 15.281553 4.8460159 0
-8.5025053 8.3059149 -0.31238076 0
-21.858467 21.390209 5.2084107 0
-15.415421 15.043502 6.3871799 0
-13.311071 12.944727 2.3916779 0
-15.595393 15.138911 5.3617721 0
-14.765661 14.277494 0.69065738 0
-15.615409 15.086495 4.8270378 0
-14.480769 13.923168 -0.2477167 0
-15.880355 15.264473 4.3612628 0
-16.980042 16.281544 6.9517245 0
-16.055325 15.362271 3.8608847 0
-6.8130579 6.4690404 -0.6289686 0
-14.37584 13.682891 3.0084968 0
-6.8580527 6.4790716 -0.62899935 0
-14.450836 13.692966 3.0184824 0
-18.999521 17.980522 7.6941724 0
-16.585238 15.642976 2.8697126 0
-4.9136262 4.5932345 -0.68546057 0
-19.864323 18.621958 0.19628456 0
-15.665537 14.668959 4.2591553 0
-6.9130602 6.4241567 -0.62869322 0
-14.265964 13.268524 2.0405092 0
-4.9486279 4.5632753 -0.69029462 0
-16.720287 15.466065 0.21062383 0
-4.9586282 4.5532956 -0.69023943 0
-15.515649 14.315294 7.8959174 0
-16.070501 14.786774 4.8537645 0
-15.320724 14.069715 7.7820535 0
-4.3987937 3.9930305 -0.71769845 0
-8.8875408 8.0862675 -0.31609139 0
-3.9239273 3.5478177 -0.73568773 0
-15.84562 14.403457 6.3556023 0
-15.265785 13.843708 3.1131165 0
-15.88063 14.373466 6.3557696 0
-15.180826 13.710777 3.5787492 0
-15.920637 14.348499 6.3609142 0
-15.295815 13.743709 3.1086276 0
-6.8931227 6.149374 -0.6123296 0
-18.369997 16.429579 3.0866113 0
-5.9633822 5.2888021 -0.67845654 0
-16.985397 15.093644 0.74261373 0
-5.98838 5.2888269 -0.67844474 0
-14.995952 13.267778 0.68582851 0
-16.305614 14.419174 5.3707166 0
-15.945724 14.075621 7.9523134 0
-5.1036258 4.4635105 -0.69472504 0
-15.730802 13.820015 7.8334875 0
-4.5037889 3.9182169 -0.72227454 0
-15.495872 13.513739 -0.26019141 0
-4.0189209 3.4730027 -0.74027395 0
-7.8279161 6.7753963 -0.47503111 0
-15.16599 13.153414 3.0415125 0
-6.7482066 5.8096251 -0.5757004 0
-18.940022 16.319532 0.78737569 0
-20.724577 17.851402 6.6805916 0
-15.400981 13.243754 8.7012234 0
-5.1786261 4.4086165 -0.69942021 0
-14.9411 12.752822 0.67836499 0
-20.879585 17.813543 6.0308337 0
-19.250027 16.395142 8.7472267 0
-16.990606 14.425132 4.4159713 0
-6.6582565 5.6047511 -0.5597223 0
-16.215822 13.6945 3.2042792 0
-6.6382666 5.5647845 -0.55453181 0
-16.190849 13.609454 3.1946883 0
-16.540781 13.871462 5.8685479 0
-15.456049 12.910194 1.1628113 0
-19.445068 16.233873 6.2080655 0
-16.63077 13.816373 0.2187987 0
-5.2636285 4.3387647 -0.69904125 0
-16.025938 13.263364 0.70629358 0
-6.1834006 5.0841417 -0.68234634 0
-18.38537 15.171796 2.4378574 0
-17.85553 14.708647 6.2699537 0
-14.476359 11.883549 1.9774951 0
-4.663784 3.7935085 -0.72659051 0
-16.385902 13.366357 0.22091968 0
-4.1589127 3.3582897 -0.74464989 0
-6.2334051 5.0342259 -0.68208003 0
-20.035044 16.212454 0.20835361 0
-4.1789112 3.3433311 -0.74456882 0
-8.5978394 6.9007068 -0.52033174 0
-15.371219 12.346315 2.5305812 0
-5.3586287 4.2639117 -0.70363331 0
-8.8227997 7.0157175 -0.54081106 0
-21.684738 17.235842 0.84897256 0
-4.7387824 3.7336328 -0.73126733 0
-6.5933456 5.1851211 -0.52767992 0
-16.261072 12.814953 2.1536136 0
-18.450584 14.521625 5.7761006 0
-15.861216 12.441384 7.0353413 0
-4.243907 3.2884536 -0.74927509 0
-6.5683646 5.0952091 -0.51724827 0
-16.925961 13.14387 0.72223204 0
-4.7887831 3.6837366 -0.73100626 0
-15.946198 12.312253 -0.71408272 0
-17.625839 13.581036 2.2953763 0
-6.2084594 4.7495384 -0.6556915 0
-9.1377935 6.9708939 -0.555475 0
-17.340933 13.211843 0.22204256 0
-4.8137851 3.6388147 -0.73077643 0
-15.701317 11.897334 -0.69214702 0
-15.921299 12.053782 3.0322266 0
-15.291467 11.548309 5.244473 0
-24.67935 18.609873 3.8084092 0
-20.345356 15.312028 6.8779516 0
-17.016081 12.755515 2.2091844 0
-6.6083937 4.9203954 -0.51137972 0
-19.230608 14.359765 3.0221674 0
-16.791189 12.520418 6.7602897 0
-17.136099 12.749508 4.249258 0
-18.535828 13.784122 8.6247816 0
-5.603622 4.1292171 -0.71788383 0
-18.340899 13.583965 9.7457018 0
-18.905752 13.956778 5.7840266 0
-16.161322 11.859573 -0.23679516 0
-16.686235 12.220222 2.1566715 0
-4.9337783 3.5739658 -0.7404213 0
-16.77622 12.206816 0.22673801 0
-4.3739018 3.1487553 -0.7535491 0
-6.8783646 4.9555054 -0.53145945 0
-19.945572 14.382762 0.21725792 0
-26.714188 19.251837 6.4009857 0
-16.301367 11.684689 -0.23590115 0
-16.641315 11.901 1.1831912 0
-6.0085611 4.2649765 -0.60340607 0
-16.676315 11.849783 -0.24657306 0
-16.341421 11.599044 3.0445805 0
-7.0183558 4.940587 -0.54134142 0
-17.076273 12.036247 1.2026769 0
-5.9785762 4.1850634 -0.59302962 0
-19.630753 13.770167 0.7751255 0
-5.6736422 3.94947 -0.7119925 0
-16.066505 11.206735 0.23134123 0
-5.6936407 3.9444935 -0.71196246 0
-16.341459 11.339827 -0.22922012 0
-4.4439006 3.0539544 -0.75306857 0
-16.061525 11.092804 -0.67812276 0
-16.516472 11.392095 2.5756276 0
-5.7036471 3.8945491 -0.71171975 0
-16.381493 11.209883 -0.22858128 0
-19.990826 13.690287 5.3706641 0
-11.482489 7.8062716 -0.72373927 0
-16.6415 11.321319 3.5360174 0
-5.9236121 3.9902723 -0.57211041 0
-15.79666 10.663683 0.67887533 0
-5.728652 3.839648 -0.70644796 0
-18.401154 12.362516 0.22650595 0
-5.7386537 3.8246684 -0.70637488 0
-18.371178 12.282522 0.22687984 0
-24.110123 16.120871 6.3752542 0
-6.9734221 4.617569 -0.12979794 0
-18.376228 12.203689 2.8022993 0
-5.728663 3.7647402 -0.70109034 0
-18.516291 12.245064 8.8922024 0
-17.531443 11.551602 4.6901727 0
-16.916515 11.090127 -0.2378476 0
-5.7186689 3.7247939 -0.69590116 0
-16.006706 10.446911 0.23496912 0
-5.168777 3.3444159 -0.74924481 0
-19.95607 13.000453 8.8890057 0
-17.786442 11.546878 4.7352662 0
-20.001081 12.96548 8.8941841 0
-15.586869 10.063833 4.1817088 0
-17.091543 10.992263 0.23267365 0
-16.031797 10.309419 4.2856679 0
-16.076748 10.291986 0.23572716 0
-5.678689 3.6099346 -0.68036532 0
-16.066763 10.231997 0.23600805 0
-5.6786919 3.5899522 -0.68027151 0
-17.236559 10.927344 0.23302311 0
-5.6636958 3.5649867 -0.67515612 0
-18.05652 11.426034 8.0059633 0
-5.1937861 3.2445686 -0.743765 0
-7.9232869 4.9509473 -0.61612701 0
-16.366856 10.25953 7.7760453 0
-16.161854 10.094479 4.286725 0
-7.9482923 4.9159889 -0.61595559 0
-17.151741 10.643909 7.5794277 0
-17.286682 10.690966 4.5541968 0
-22.425711 13.808908 0.22073798 0
-17.661625 10.864296 4.1384673 0
-18.231476 11.172724 0.23212504 0
-5.588726 3.3951735 -0.65437305 0
-18.296482 11.152756 0.23223396 0
-5.2837801 3.1946971 -0.74850368 0
-19.52128 11.843119 0.22928526 0
-15.98697 9.6960783 4.6685677 0
-18.201534 10.989874 0.72798526 0
-5.5587373 3.3252599 -0.64405155 0
-25.035355 15.052623 0.89553821 0
-5.5587387 3.3102775 -0.64398038 0
-18.761471 11.222301 1.2520361 0
-19.041492 11.380483 5.4863949 0
-22.340855 13.288974 0.22317058 0
-18.531588 11.012455 4.812993 0
-18.826611 11.182009 9.3723297 0
-22.046021 13.049818 6.2942805 0
-18.106627 10.666978 1.2144884 0
-12.787585 7.5228615 4.1330099 0
-25.165464 14.781435 2.9418752 0
-15.907072 9.3157988 4.6053371 0
-20.521235 11.963509 0.22896311 0
-5.3537836 3.0898764 -0.74799621 0
-16.756882 9.7124529 0.23863524 0
-18.446674 10.692228 4.7644773 0
-18.576721 10.753657 8.6142712 0
-5.3587866 3.0599132 -0.74785554 0
-17.64687 10.151984 7.1118555 0
-25.03063 14.36295 5.6538105 0
-16.132006 9.1917896 -1.0590898 0
-13.677475 7.7926216 2.8319504 0
-5.4737735 3.0805511 -0.61792445 0
-19.066563 10.766009 -0.27577689 0
-4.7988839 2.6797402 -0.76620603 0
-6.7035775 3.7408702 -0.63573456 0
-17.511835 9.7837963 -0.69654179 0
-18.031807 10.051085 2.1623628 0
-16.857048 9.3769674 4.8102651 0
-17.706829 9.7888403 -0.70652413 0
-18.801727 10.385958 3.255985 0
-12.297786 6.7683768 4.2764254 0
-22.931082 12.594674 2.6665828 0
-5.4637866 2.9657123 -0.60739231 0
-19.371607 10.543997 -0.79468513 0
-19.79661 10.759607 2.8644512 0
-27.350529 14.836777 7.5871248 0
-21.321348 11.498931 0.2313 0
-4.9188719 2.6248713 -0.78092527 0
-5.4887891 2.9157889 -0.60715675 0
-16.847189 9.0120287 7.1919875 0
-5.5137877 2.9108131 -0.60713005 0
-12.457831 6.6215734 5.017149 0
-4.9138756 2.5799446 -0.77571905 0
-10.028104 5.2663589 -0.79713142 0
-20.036629 10.530847 0.76053023 0
-12.492808 6.547699 2.907469 0
-17.731956 9.2421055 -1.1589953 0
-14.142563 7.3664317 2.489017 0
-10.118106 5.2313938 -0.80695248 0
-20.611572 10.641564 -0.30488798 0
-4.9938684 2.5499933 -0.79056752 0
-12.827819 6.589045 4.3873582 0
-18.481962 9.4684515 2.6651521 0
-12.817802 6.5380602 2.9625733 0
-12.657865 6.4402437 4.6830158 0
-20.86161 10.561244 0.78054416 0
-5.5637932 2.7860005 -0.60654604 0
-12.792864 6.4354558 4.7230611 0
-18.487015 9.2684393 2.6560705 0
-5.5787926 2.7660391 -0.60645115 0
-19.006882 9.4322577 -1.2446407 0
-20.786711 10.303052 2.4017298 0
-12.917839 6.3731542 2.9683442 0
-18.546974 9.1023302 -1.2032111 0
-22.586494 11.074322 2.5785134 0
-5.6087952 2.7161167 -0.60622001 0
-19.441874 9.4373426 -1.2695912 0
-20.7218 10.057533 3.4728532 0
-5.1738558 2.4757378 -0.67519641 0
-19.626875 9.4173641 -1.2844721 0
-20.681814 9.9129639 2.37849 0
-12.602942 6.0205932 3.5649071 0
-19.26195 9.1424427 -1.2482784 0
-11.758099 5.5663071 4.9918561 0
-5.0388765 2.3503327 -0.7796514 0
-13.937789 6.5408163 3.5227494 0
-11.248055 5.231638 -0.90176857 0
-14.462788 6.7365174 6.056973 0
-5.0288801 2.3054039 -0.77444983 0
-5.1188712 2.3359456 -0.65457308 0
-11.438048 5.2266793 -0.91671968 0
-19.242041 8.7675962 -1.2365874 0
-11.503208 5.2414217 6.2383013 0
-13.787851 6.2440677 3.1040623 0
-19.2822 8.6974201 4.738791 0
-6.0037632 2.6662786 -0.65593839 0
-13.657917 6.0834641 4.1697783 0
-12.71792 5.6166196 -1.0432993 0
-38.049774 16.765999 -1.7300103 0
-14.687866 6.4534788 6.5182824 0
-5.1038799 2.2061403 -0.6439929 0
-7.608573 3.2866228 -0.70351303 0
-7.6185741 3.2716427 -0.7034446 0
-13.377873 5.7316408 -1.1037326 0
-12.588125 5.3926129 5.2427511 0
-5.1238804 2.1612153 -0.64379025 0
-13.368007 5.6714611 3.6965802 0
-18.092499 7.6397738 5.3883815 0
-22.541819 9.4378109 -1.4691545 0
-12.41818 5.1936865 5.5136309 0
-14.232915 5.924521 3.1605599 0
-13.992967 5.7972775 3.8461065 0
-7.9635515 3.2567487 -0.73833239 0
-8.0285463 3.2617428 -0.748348 0
-22.081942 8.9629526 -1.4220971 0
-12.748199 5.177351 6.3837495 0
-4.8989058 1.9510001 -0.72287977 0
-14.122994 5.6674004 3.8616946 0
-6.1537681 2.4316456 -0.65987253 0
-14.512836 5.7318053 -1.1985987 0
-12.768229 5.0472913 6.3693228 0
-5.4988422 2.1363378 -0.69863784 0
-13.797966 5.3925791 0.25783175 0
-10.048416 3.9127603 1.7790043 0
-6.233768 2.3966792 -0.66971719 0
-13.818085 5.3334455 4.1331272 0
-13.852991 5.314045 0.60318637 0
-4.8539157 1.8361729 -0.70738232 0
-8.6385145 3.2668171 -0.81331992 0
-14.037968 5.3062868 -0.091771424 0
-12.058355 4.5570521 6.3614006 0
-5.573843 2.0664427 -0.7033298 0
-14.652928 5.4679103 0.25757739 0
-38.315678 14.316737 6.9409671 0
-14.62792 5.4149451 -0.47220144 0
-12.068383 4.4735174 6.7217703 0
-6.3987608 2.3317811 -0.68941998 0
-12.733294 4.6739597 5.5559359 0
-11.598458 4.2453165 7.1977324 0
-14.572948 5.284997 -0.46663943 0
-12.843316 4.6621804 6.3410058 0
-14.403077 5.1896286 3.1437931 0
-14.257995 5.1000237 -0.44585833 0
-13.833109 4.934741 1.9748542 0
-14.018009 4.9671955 -1.1303083 0
-10.22345 3.6109114 1.2753284 0
-9.6634436 3.3917997 -0.93378544 0
-12.003425 4.2367253 6.2877927 0
-4.7789264 1.6514837 -0.681584 0
-14.373021 5.0015368 -0.095413506 0
-37.800934 13.148266 4.9010067 0
-14.15304 4.8850975 -0.43992588 0
-38.145897 13.169681 3.9909365 0
-14.213022 4.8623004 -1.1398284 0
-15.108173 5.1801682 6.9289403 0
-5.6538439 1.9016927 -0.70760345 0
-13.01833 4.4228749 5.2670584 0
-11.10843 3.7460716 2.474823 0
-14.483045 4.8616462 -0.094787151 0
-11.188429 3.7461627 2.4898298 0
-14.508032 4.8237853 -0.80962849 0
-14.163313 4.7232223 7.7558694 0
-13.878087 4.5774441 -1.1036072 0
-14.083325 4.6629939 7.7061262 0
-10.518513 3.4526188 2.8910639 0
-13.95313 4.5479946 0.26154402 0
-4.783926 1.5367072 -0.67107987 0
-14.193095 4.5852799 -0.43360671 0
-14.238175 4.5915403 2.3614011 0
-15.343 4.9203868 -0.48997548 0
-10.368505 3.3132126 1.7966547 0
-13.86312 4.4025736 -1.0928451 0
-15.033253 4.7847924 6.8506632 0
-6.9237385 2.1670585 -0.74865687 0
-13.973151 4.3817115 -0.077733338 0
-16.608034 5.2119417 3.5388892 0
-16.213154 5.0784621 6.4394727 0
-16.578045 5.1618991 3.529104 0
-14.34829 4.4535298 5.3370342 0
-14.488194 4.4617825 2.3919849 0
-12.103444 3.7171412 3.8950469 0
-13.733214 4.1794095 0.59813356 0
-7.1487255 2.1520901 -0.77857614 0
-14.72812 4.4419346 -0.092939436 0
-5.1888895 1.5416989 -0.74607325 0
-12.658428 3.7992833 4.3897357 0
-15.098186 4.5088196 2.8518291 0
-14.558288 4.330718 4.6175699 0
-16.278273 4.8428164 8.7855206 0
-11.203397 3.2770021 -1.0981629 0
-14.038248 4.1186666 1.6284289 0
-11.228398 3.2620077 -1.1030955 0
-13.803236 3.9981778 0.26391551 0
-5.8538384 1.6720496 -0.72659242 0
-13.588411 3.9236126 5.4092698 0
-5.8538394 1.6570677 -0.72652864 0
-12.273486 3.508625 4.2459602 0
-16.723074 4.7454491 1.8809023 0
-16.973124 4.7989826 4.0106988 0
-14.773177 4.1320891 -0.091606885 0
-5.0988989 1.4019387 -0.7204802 0
-15.343138 4.2621989 -0.10712981 0
-5.1238956 1.4019437 -0.72547746 0
-14.943175 4.1121469 -0.096511662 0
-16.613163 4.5718956 3.5066433 0
-14.108254 3.8533645 0.26455259 0
-20.20294 5.522645 4.7077889 0
-13.743279 3.7119741 -0.064869165 0
-20.467916 5.5409164 4.2527194 0
-14.103427 3.8044305 5.5798082 0
-5.8838406 1.5572218 -0.72610068 0
-14.473237 3.8471231 -0.08540675 0
-11.403658 3.0374794 6.5379477 0
-14.658383 3.8772683 4.9945183 0
-14.483318 3.8018544 2.3698106 0
-14.66839 3.8422728 4.9946661 0
-11.478675 3.0040545 6.9330955 0
-15.388169 3.9744165 -0.84591317 0
-13.18338 3.3857248 0.90149915 0
-11.898412 3.0322142 -1.1670839 0
-14.02332 3.564781 0.60077429 0
-7.7137146 1.9373498 -0.84763169 0
-14.153306 3.5635102 0.26578185 0
-5.1138983 1.2621617 -0.71988773 0
-13.853305 3.4445083 -0.73373938 0
-11.213547 2.7769985 1.3489912 0
-19.51812 4.8406911 5.5256543 0
-12.168489 2.9876211 1.4381421 0
-19.518129 4.7906713 5.520864 0
-11.573669 2.8300316 5.9088216 0
-14.283291 3.4545591 -0.76376557 0
-10.843597 2.6138396 1.8346679 0
-13.923331 3.3358934 -0.40327731 0
-10.903597 2.6039057 1.8447117 0
-15.608425 3.7368977 6.1051574 0
-20.058084 4.7704234 4.1459527 0
-15.258277 3.5939109 0.26569277 0
-5.9838409 1.3874643 -0.73538351 0
-13.703392 3.1947818 0.5923152 0
-7.8837175 1.8175024 -0.86212349 0
-16.423218 3.7942526 0.26489124 0
-11.503597 2.6466434 2.4945505 0
-14.728476 3.3772564 4.9816203 0
-11.788556 2.6785519 1.6794243 0
-14.373327 3.2397068 -0.76286697 0
-11.628711 2.6313906 6.2546554 0
-13.858377 3.0910316 -0.39225945 0
-5.178894 1.1323788 -0.72434521 0
-14.068358 3.1047385 -0.74231422 0
-10.793633 2.3788846 1.825645 0
-17.843359 3.9387929 6.4393792 0
-5.2088909 1.1174037 -0.72928214 0
-14.338364 3.1011131 -0.41729006 0
-10.708645 2.308825 1.8109324 0
-14.643352 3.136153 -0.43242827 0
-10.638644 2.2677662 1.5410981 0
-15.328305 3.2448156 -0.82786751 0
-15.813373 3.3415537 2.151772 0
-15.778488 3.3304114 5.7168436 0
-17.51833 3.6727862 3.635442 0
-15.418536 3.2280357 6.4172664 0
-8.2737131 1.697615 -0.91161978 0
-16.79351 3.4891689 7.9012289 0
-14.603367 2.9898884 -0.77182984 0
-9.7787094 1.9930878 1.6722145 0
-13.918442 2.8237596 0.26885149 0
-19.633278 3.9937043 5.0091691 0
-16.653517 3.3770247 7.361681 0
-13.953406 2.7836447 -1.055997 0
-16.528587 3.329215 9.2268925 0
-13.933442 2.7625144 -0.060899943 0
-17.233381 3.4175043 3.5764861 0
-14.008452 2.7488284 0.26916012 0
-16.378454 3.2197797 4.2222919 0
-13.273516 2.5810854 0.89984381 0
-14.988533 2.9145675 4.263525 0
-14.373445 2.7539554 0.26914263 0
-16.148478 3.099494 4.1627798 0
-16.238358 3.0744679 0.2678526 0
-13.393455 2.5175445 -1.324918 0
-16.033419 3.0152986 1.7881066 0
-16.253525 3.0544157 5.4279757 0
-16.203466 3.0264657 3.37307 0
-16.093576 2.999121 6.6582108 0
-13.538456 2.4825637 -1.3397751 0
-11.223662 2.0583048 1.6019617 0
-14.768427 2.6914203 -0.43060622 0
-16.103483 2.9363742 3.3534353 0
-16.108412 2.9124401 1.0335175 0
-14.378432 2.5787702 -1.0951581 0
-15.263707 2.7628262 8.9791861 0
-14.688455 2.6077998 -0.075265646 0
-5.3288832 0.92270702 -0.74348688 0
-15.238455 2.680675 0.62944829 0
-8.958703 1.5526913 -1.0060253 0
-16.008459 2.7903357 1.7840174 0
-16.20837 2.8001399 -0.8810463 0
-15.98849 2.758281 2.5491538 0
-16.023409 2.7380869 -0.1057893 0
-6.3988318 1.0728737 -0.78909159 0
-13.888535 2.3452227 0.59579873 0
-9.0537052 1.5077342 -1.0158443 0
-16.098454 2.6874938 1.0294243 0
-15.7834 2.6137562 -1.2252994 0
-16.083483 2.6604168 1.7895408 0
-18.498505 3.0558426 5.6429768 0
-16.058514 2.6283524 2.5546768 0
-14.403674 2.3480487 5.2008228 0
-16.238527 2.619998 2.9697125 0
-14.043703 2.2588925 5.4461837 0
-16.103527 2.5584004 2.5599558 0
-11.893765 1.8790743 4.3377023 0
-9.8687658 1.5383687 1.6790543 0
-16.09343 2.4852903 -0.86978304 0
-13.81876 2.1428468 6.4966578 0
-9.4937 1.4327532 -1.0755466 0
-12.858759 1.9519005 5.007412 0
-5.4088783 0.79290962 -0.75296748 0
-14.883511 2.2017014 -0.42864099 0
-11.053736 1.6243573 1.8437046 0
-11.773771 1.7215644 3.6833243 0
-11.063739 1.6043707 1.8437843 0
-14.718498 2.0977283 -1.4682364 0
-9.5137815 1.3464005 1.1698149 0
-6.4838357 0.8980965 -0.7983954 0
-16.903479 2.3599668 0.27071851 0
-9.4287882 1.2963843 1.1650141 0
-6.6038322 0.88308889 -0.81833816 0
-14.478539 1.939168 -1.0926033 0
-12.793684 1.7034972 1.4783689 0
-6.6238337 0.85313135 -0.81822097 0
-6.6588316 0.84814 -0.8232013 0
-15.853527 2.026938 -0.47296193 0
-13.558853 1.7401571 7.1332583 0
-16.183661 2.0379906 3.7370205 0
-14.718547 1.8029234 -1.4620748 0
-16.773493 2.0190916 -1.3029536 0
-14.553595 1.7318878 -0.41178486 0
-15.888824 1.8934392 7.8426251 0
-5.5788713 0.62813479 -0.77732313 0
-14.673572 1.6630272 -1.4515282 0
-48.562645 5.5177855 1.3928552 0
-6.8888292 0.75319678 -0.86283541 0
-14.608583 1.5930678 -1.4462546 0
-15.348565 1.6429629 -1.5314634 0
-17.873755 1.9133061 6.3474965 0
-10.708793 1.1123459 1.2807111 0
-5.5988693 0.55823159 -0.78205264 0
-10.248732 1.0180295 -1.1689342 0
-15.453789 1.5415779 4.7289734 0
-15.663619 1.5121593 -0.46095636 0
-15.793903 1.5348347 8.2390194 0
-7.0188303 0.64330423 -0.88241422 0
-11.548831 1.0570507 2.4609115 0
-7.0088334 0.60835737 -0.87728024 0
-13.128811 1.1486071 2.7605236 0
-5.6338696 0.45836893 -0.78667104 0
-5.6488686 0.44839126 -0.78663337 0
-6.8738403 0.53348958 -0.85199106 0
-12.733845 0.99939376 2.9911048 0
-7.118835 0.52344173 -0.89195979 0
-16.623831 1.2465777 4.6400709 0
-16.258892 1.1973102 6.2052798 0
-48.55331 3.5141759 7.1055984 0
-7.0838385 0.47350672 -0.88676977 0
-13.088873 0.88597393 3.3815279 0
-15.258931 1.0271913 6.2459526 0
-16.443804 1.0753822 2.9807136 0
-16.158665 1.0082343 -1.6190592 0
-10.738832 0.66071475 0.77742898 0
-5.743866 0.32852584 -0.80618334 0
-16.148676 0.93828976 -1.6137955 0
-14.598919 0.84178996 4.8366599 0
-16.089001 0.91852504 7.9013486 0
-11.748868 0.63030535 1.9325205 0
-7.3238392 0.36357009 -0.92636442 0
-7.3688393 0.34858203 -0.93131006 0
-16.183926 0.78252804 4.9218326 0
-11.948877 0.56048131 1.9577749 0
-15.818892 0.72771168 3.6420393 0
-20.063671 0.86450869 -1.5986423 0
-4.7989178 0.18827079 0.50437915 0
-5.8238645 0.21867593 -0.81577635 0
-39.458488 1.5547496 -1.5668344 0
-15.684095 0.62774688 9.092453 0
-16.098736 0.57849342 -1.6074518 0
-14.554035 0.53387707 6.7628222 0
-15.448923 0.53734809 3.5627573 0
-39.583546 1.2998173 -1.5708944 0
-13.893907 0.44328246 2.5631499 0
-16.123974 0.50245416 4.902873 0
-15.129029 0.44690931 6.1881194 0
-7.7288442 0.19364215 -0.99074888 0
-12.018803 0.28824171 -1.411244 0
-19.978746 0.46469802 -1.5871618 0
-12.619039 0.2889078 5.5487804 0
-13.503956 0.28535584 3.148747 0
-4.693902 0.077167198 0.16978869 0
-4.663877 0.069343649 -0.60018682 0
-4.7788973 0.066784963 0.054822847 0
-15.213958 0.25079748 3.1438153 0
-4.7189007 0.057205345 0.16986051 0
-16.443949 0.24052943 2.9788094 0
-14.15901 0.18489625 4.3390999 0
-4.7239027 0.037639309 0.27993205 0
-15.709 0.16906413 3.9991016 0
-12.119046 0.11181307 5.0094399 0
-12.253828 0.07834997 -1.4404858 0
-15.93908 0.11670496 6.079298 0
-13.533941 0.065726593 1.8595372 0
-12.373836 0.023347698 -1.4602908 0
-15.909092 0.04665827 6.0695524 0
-13.153969 0.012755536 2.4397457 0
-16.108835 -0.026167626 -1.6052414 0
-12.189066 -0.018049929 5.0399075 0
-6.0938625 -0.041084796 -0.86983836 0
-19.993853 -0.11504551 -1.5850545 0
-4.6339021 -0.046861049 0.39024034 0
-4.6939111 -0.050635286 0.72025365 0
-16.013861 -0.16605896 -1.5897347 0
-12.094081 -0.12821177 5.0003061 0
-4.6488996 -0.076811522 0.39034677 0
-4.6189022 -0.086424731 0.4953827 0
-13.308985 -0.22931701 1.835605 0
-17.199236 -0.30954164 8.4208012 0
-13.403983 -0.29537073 1.5308354 0
-13.223987 -0.32045975 1.5159304 0
-18.509203 -0.48101014 6.5363555 0
-13.669181 -0.37149373 6.7511292 0
-15.499187 -0.46751398 6.3364062 0
-8.3338737 -0.28605384 -1.0890439 0
-6.0838628 -0.22580956 -0.86418128 0
-16.744112 -0.60760164 3.4368422 0
-6.0688639 -0.25577635 -0.8640753 0
-15.758944 -0.68573934 -1.5628829 0
-13.024103 -0.58262759 3.6918755 0
-12.73892 -0.61628395 -1.5080297 0
-8.6738863 -0.4460108 -1.1434946 0
-8.6688871 -0.46599257 -1.1434249 0
-6.0738635 -0.34564501 -0.86376238 0
-19.814041 -1.1645726 -1.5663395 0
-15.733987 -0.96558803 -1.5619071 0
-12.733947 -0.81616431 -1.5123349 0
-12.73395 -0.84114456 -1.512249 0
-14.894141 -1.0054907 2.733278 0
-15.574209 -1.1108767 3.9836316 0
-13.494259 -0.99817497 6.3083143 0
-6.2138653 -0.50551099 -0.89321673 0
-12.65398 -1.0659713 -1.5014757 0
-15.934274 -1.3790429 4.4695406 0
-8.9239168 -0.81576091 -1.1872318 0
-19.994169 -1.8843045 -1.5888798 0
-6.3838692 -0.63042408 -0.92279816 0
-15.664083 -1.5852344 -1.5547909 0
-15.669094 -1.6551933 -1.5545561 0
-19.834221 -2.179157 -1.5728849 0
-6.488873 -0.74535352 -0.94741511 0
-12.629033 -1.4806813 -1.5000805 0
-19.904261 -2.4090774 -1.5821207 0
-9.2989502 -1.1606207 -1.2560858 0
-15.619146 -2.0000098 -1.5534081 0
-41.850025 -5.4937229 -1.6722571 0
-9.6089668 -1.3056178 -1.305613 0
-19.909323 -2.7639377 -1.5859522 0
-9.5789719 -1.3655672 -1.3054168 0
-20.049349 -2.918896 -1.6004474 0
-6.3538728 -0.96001905 -0.92670798 0
-12.659093 -1.9404092 -1.5135721 0
-40.310188 -6.2936726 -1.5996273 0
-9.5939894 -1.5404217 -1.3098485 0
-15.499228 -2.5447009 -1.5466286 0
-39.955273 -6.6886215 -1.5883414 0
-9.8340101 -1.6954114 -1.3543472 0
-20.319466 -3.5586748 -1.6333729 0
-6.8988967 -1.2400044 -1.0358069 0
-12.539139 -2.2901304 -1.5024415 0
-20.409512 -3.8035777 -1.6425898 0
-6.4088798 -1.2247241 -0.94585741 0
-12.56916 -2.4400504 -1.5119646 0
-34.645245 -6.8366585 -2.1678784 0
-9.899045 -2.0001926 -1.3733767 0
-20.144566 -4.1234217 -1.6265804 0
-9.8340473 -2.050113 -1.3632221 0
-20.309603 -4.3033657 -1.6410131 0
-9.8990593 -2.1350672 -1.3729554 0
-41.090767 -8.9480982 -1.6511707 0
-15.279359 -3.3842065 -1.5389688 0
-9.8890667 -2.2200036 -1.3776935 0
-20.259657 -4.6132436 -1.6450554 0
-6.7339053 -1.5695235 -1.0147761 0
-15.244391 -3.5890877 -1.5383387 0
-41.695988 -9.9428835 -1.6880926 0
-9.9340897 -2.414875 -1.3920951 0
-15.309424 -3.7840142 -1.5527425 0
-40.711037 -10.192877 -1.6423652 0
-9.9491043 -2.5397835 -1.396715 0
-20.369776 -5.2580009 -1.6630893 0
-6.7439132 -1.7743136 -1.0291566 0
-12.344275 -3.2894328 -1.5043578 0
-15.194473 -4.1088133 -1.5467733 0
-20.804867 -5.7179027 -1.7116938 0
-6.5889091 -1.8441322 -1.003957 0
-9.7941246 -2.774523 -1.3810252 0
-15.099509 -4.3386722 -1.5410979 0
-42.946548 -12.477367 -1.7654519 0
-9.799139 -2.8944337 -1.385673 0
-12.254324 -3.6691582 -1.5032467 0
-12.194327 -3.7091148 -1.4981353 0
-12.184337 -3.7690749 -1.4979614 0
-15.019566 -4.7084742 -1.5450312 0
-15.044579 -4.7884412 -1.5497999 0
-15.049591 -4.8634133 -1.5545851 0
-15.019601 -4.9283776 -1.5544027 0
-36.781406 -12.210569 -2.3917093 0
-43.712051 -14.711966 -1.823966 0
-6.6539316 -2.2787149 -1.0377022 0
-6.6289315 -2.3036659 -1.0326346 0
-9.4591722 -3.3239443 -1.3544787 0
-11.969398 -4.2587109 -1.4915961 0
-11.924401 -4.2986641 -1.4864922 0
-11.859405 -4.3386226 -1.4813877 0
-11.824409 -4.3835731 -1.476269 0
-11.809417 -4.4385347 -1.4761198 0
-11.754419 -4.4734907 -1.471033 0
-11.729426 -4.5284553 -1.4708847 0
-11.724434 -4.5834293 -1.4757378 0
-11.689439 -4.6283808 -1.4706219 0
-11.699448 -4.6933517 -1.4754453 0
-11.669453 -4.7383165 -1.4753308 0
-11.719466 -4.8182931 -1.4851099 0
-9.0041971 -3.7583797 -1.3083595 0
-6.2689214 -2.6530383 -0.99173701 0
-6.0539021 -2.5979292 -0.95191705 0
-8.874198 -3.8382421 -1.2931737 0
-14.829847 -6.477632 -1.5902094 0
-48.568584 -21.405834 -2.1301575 0
-8.5641785 -3.8180795 -1.2482823 0
-8.5641842 -3.8680382 -1.2481511 0
-8.3641644 -3.8179562 -1.2183216 0
-11.469522 -5.2879391 -1.4789282 0
-27.471373 -12.787046 -2.5064795 0
-5.9789038 -2.8176506 -0.95636511 0
-11.339529 -5.3828206 -1.463712 0
-27.356436 -13.10197 -2.5107024 0
-5.8438921 -2.8325109 -0.93135762 0
-11.199533 -5.46772 -1.453529 0
-11.139536 -5.5026784 -1.4484533 0
-14.50996 -7.2322345 -1.5933512 0
-14.504974 -7.3172083 -1.5981369 0
-50.939617 -25.89023 -2.3082654 0
-5.8789034 -3.0273628 -0.95586419 0
-10.999561 -5.7374878 -1.4429061 0
-7.9141698 -4.1774211 -1.1775235 0
-52.100063 -27.809992 -2.3932488 0
-14.305037 -7.7369785 -1.5971599 0
-10.844581 -5.932323 -1.4374745 0
-14.085033 -7.7768893 -1.5771265 0
-10.784591 -6.0272541 -1.4372618 0
-7.7541785 -4.3821683 -1.1670747 0
-14.180096 -8.1218033 -1.6062728 0
-7.3591342 -4.2669773 -1.1024669 0
-14.125121 -8.2917242 -1.6108932 0
-7.5641742 -4.4969707 -1.1518635 0
-14.200169 -8.5516558 -1.6302595 0
-7.379159 -4.5018444 -1.1269108 0
-36.818691 -22.671055 -1.6700261 0
-10.459642 -6.5268593 -1.4311985 0
-5.5588918 -3.5116308 -0.94481647 0
-10.324646 -6.60676 -1.4210613 0
-5.4538803 -3.531517 -0.92980886 0
-10.314668 -6.7566857 -1.4307294 0
-7.184166 -4.756537 -1.1214052 0
-5.3988771 -3.6113942 -0.92965353 0
-5.3138657 -3.5913341 -0.91472995 0
-13.705285 -9.3662338 -1.6335927 0
-7.3792214 -5.1014628 -1.1755613 0
-7.3692241 -5.1414385 -1.1804788 0
-13.680335 -9.6611309 -1.6479564 0
-9.9846973 -7.1213632 -1.4200577 0
-5.2138615 -3.7611008 -0.919402 0
-10.039732 -7.326314 -1.4445921 0
-5.1338525 -3.7909961 -0.90937293 0
-9.929739 -7.4212232 -1.4394345 0
-5.0688453 -3.8309023 -0.90431809 0
-9.8647461 -7.5411544 -1.4442168 0
-5.1388593 -3.97086 -0.92899454 0
-9.5997152 -7.5060267 -1.4094262 0
-5.1088557 -4.0407877 -0.93386531 0
-13.275455 -10.615761 -1.6761364 0
-6.8041921 -5.5008416 -1.1399902 0
-13.09545 -10.70568 -1.6660545 0
-6.794198 -5.6157751 -1.1497658 0
-4.9838362 -4.1605797 -0.92869222 0
-33.319649 -28.078405 -2.6899619 0
-33.274681 -28.293406 -2.699559 0
-12.730448 -10.935514 -1.6508 0
-9.1697149 -7.9556727 -1.4037573 0
-9.1347151 -7.9956422 -1.4037 0
-9.0897131 -8.0256014 -1.3986694 0
-4.8638182 -4.3403411 -0.93340969 0
-38.476101 -34.658371 -3.2489865 0
-12.460475 -11.340351 -1.6601717 0
-6.4841766 -5.9653916 -1.1492633 0
-4.863822 -4.5152373 -0.95807385 0
-8.7796993 -8.2503767 -1.3884274 0
-4.8238168 -4.580153 -0.95797467 0
-8.6196804 -8.27528 -1.3734883 0
-4.7938132 -4.6550784 -0.96285212 0
-8.5596876 -8.4052219 -1.3832814 0
-4.8588324 -4.8250585 -0.9974885 0
-8.5347004 -8.565156 -1.3930018 0
-4.8938427 -4.9600067 -1.0172192 0
-8.3896866 -8.6100798 -1.3880186 0
-4.8538375 -5.029933 -1.0221188 0
-8.3196898 -8.7300119 -1.3928478 0
-4.8988533 -5.1898904 -1.0467939 0
-8.2997055 -8.9049559 -1.4075434 0
-4.9438701 -5.3548594 -1.0764618 0
-8.2947245 -9.0949087 -1.4272066 0
-4.9988909 -5.5398374 -1.1110847 0
-8.5548124 -9.5849352 -1.5011337 0
-4.9588861 -5.6147618 -1.1159852 0
-9.3150358 -10.675114 -1.6836019 0
-5.02391 -5.8147368 -1.1505811 0
-9.1400175 -10.710016 -1.6686795 0
-5.0189161 -5.9396777 -1.1653658 0
-9.0200138 -10.809942 -1.668601 0
-4.9939184 -6.0496216 -1.180191 0
-8.8750029 -10.879862 -1.6635975 0
-4.8488865 -6.0044971 -1.1553924 0
-8.7349911 -10.949781 -1.658596 0
-8.6799879 -10.979753 -1.6585921 0
-12.646141 -16.134829 -2.0763676 0
-6.6044102 -8.5146828 -1.469589 0
-6.564405 -8.5346403 -1.4645939 0
-6.5194006 -8.5596094 -1.4645871 0
-5.3190532 -7.0545955 -1.3631914 0
-12.391182 -16.629725 -2.1057472 0
-6.3643818 -8.6294918 -1.4596075 0
-6.3043709 -8.6244526 -1.4546722 0
-5.1090126 -7.0594153 -1.3433756 0
-12.156205 -16.999624 -2.1203454 0
-12.126218 -17.114611 -2.1301842 0
-12.066223 -17.194593 -2.1351039 0
-12.001225 -17.269564 -2.1350362 0
-8.0099726 -11.644338 -1.678074 0
-5.9893332 -8.7891979 -1.4446919 0
-4.8389668 -7.1691413 -1.3284507 0
-19.008636 -28.529493 -2.8498678 0
-18.858627 -28.56447 -2.8449633 0
-11.596246 -17.749424 -2.1546373 0
-5.7943163 -8.9640303 -1.4495944 0
-18.488655 -28.969431 -2.8596632 0
-18.343649 -29.029406 -2.854708 0
-4.5789237 -7.2938862 -1.3235029 0
-18.043636 -29.129372 -2.8498399 0
-17.938643 -29.234362 -2.854785 0
-17.813644 -29.324343 -2.8547642 0
-17.653637 -29.369322 -2.849844 0
-23.420767 -39.313019 -2.8330772 0
-5.4242711 -9.1737461 -1.4496295 0
-5.3742633 -9.1837063 -1.4446639 0
-17.233664 -29.829268 -2.8645589 0
-17.108665 -29.91926 -2.8695452 0
-18.489243 -32.657623 -2.2737665 0
-5.1992378 -9.2535706 -1.4397389 0
-7.0249429 -12.623763 -1.7224915 0
-6.9749389 -12.658732 -1.7224936 0
-4.0788331 -7.4883995 -1.308714 0
-6.8549356 -12.778665 -1.7274308 0
-6.7999306 -12.808635 -1.7274451 0
-6.7299199 -12.813597 -1.7225144 0
-6.4498262 -12.418476 -1.6584336 0
-6.364809 -12.388432 -1.6485736 0
-6.3198056 -12.428399 -1.6485654 0
-6.3148212 -12.558401 -1.6683677 0
-6.4448943 -12.963448 -1.7225933 0
-6.3898888 -12.993427 -1.7276111 0
-6.3248792 -13.003388 -1.7226701 0
-6.2548676 -13.003351 -1.7177504 0
-6.1898575 -13.013323 -1.7178103 0
-6.1248431 -13.023287 -1.7128724 0
-6.0498261 -13.018251 -1.7079661 0
-5.9948168 -13.053222 -1.7079781 0
-5.2044806 -11.452224 -1.1663474 0
-5.3495717 -11.900391 -0.30550149 0
-5.8247776 -13.058146 -1.7031764 0
-4.9694099 -11.261516 -0.84191811 0
-3.3486617 -7.6477017 -1.2743053 0
-5.6547389 -13.06806 -1.6933647 0
-4.7493405 -11.101431 -0.82242227 0
-3.2636385 -7.6876202 -1.2743478 0
-5.4846978 -13.067973 -1.6835743 0
-4.5392709 -10.936344 -0.80293071 0
-4.8444362 -11.820826 -0.59123182 0
-5.3246593 -13.077893 -1.6787629 0
-4.3542137 -10.831263 -0.7883141 0
-3.0685778 -7.6924415 -1.2645845 0
-4.2441778 -10.761211 -0.7785573 0
-3.7489274 -9.5774927 -1.3859324 0
-4.2291942 -10.930647 -0.51832592 0
-4.1191325 -10.727221 -1.3137625 0
-4.1341667 -10.900605 -0.51348948 0
-3.6088901 -9.5973921 -1.3810771 0
-3.9490812 -10.621589 -1.0241394 0
-4.7195101 -12.855062 -0.3348628 0
-3.4938567 -9.6023045 -1.3762214 0
-3.769027 -10.500977 -0.73954225 0
-3.4188359 -9.6022491 -1.3713135 0
-3.8691032 -10.990468 -0.51369965 0
-4.5794802 -13.122502 -1.6446376 0
-3.5889709 -10.430885 -0.72987735 0
-2.6384442 -7.7370315 -1.2450653 0
-4.4194403 -13.12742 -1.639838 0
-3.4839463 -10.490815 -0.72993064 0
-2.5534177 -7.7619386 -1.2401421 0
-4.2644014 -13.137338 -1.6350284 0
-3.3138833 -10.371212 -0.97032356 0
-4.1293678 -13.132272 -1.6302049 0
-3.3039107 -10.650707 -0.73993301 0
-2.3833628 -7.7667818 -1.2353567 0
-3.964323 -13.112181 -1.6204522 0
-3.2339101 -10.845657 -0.7547406 0
-3.5491314 -12.089689 -0.28250793 0
-2.2533195 -7.7666478 -1.2255303 0
-3.108885 -10.950581 -0.75975513 0
-3.0838888 -11.055567 -0.76963353 0
-3.0438821 -11.100547 -0.77462184 0
-2.973856 -11.035504 -0.76481068 0
-2.9238429 -11.045478 -0.7648629 0
-15.567412 -59.771412 -2.4919734 0
-2.4735584 -9.6265259 -1.3325261 0
-2.778789 -10.980881 -1.0251558 0
-2.788825 -11.2404 -0.77976072 0
-2.7488203 -11.30038 -0.78472507 0
-2.7138166 -11.365357 -0.78968155 0
-2.6738119 -11.425337 -0.79464757 0
-2.6488132 -11.520314 -0.7995528 0
-5.5310116 -24.586966 -2.0266612 0
-5.5410705 -24.854891 -0.86126733 0
-5.5211673 -24.886511 3.9037158 0
-2.1034396 -9.576231 -1.3131055 0
-2.0584245 -9.5661907 -1.3081839 0
-2.0084074 -9.5461493 -1.3032795 0
-1.5980934 -7.7509894 -1.1964501 0
-3.3345661 -16.721497 -1.6860689 0
-2.4938953 -12.791317 -1.5279224 0
-1.4680483 -7.7408624 -1.1916405 0
-2.333842 -12.711215 -1.5132614 0
-1.3780158 -7.7307596 -1.1817808 0
-4.4359145 -25.746798 -2.1114988 0
-4.2808533 -25.526743 -2.0920327 0
-4.0907545 -25.066656 -2.0479634 0
-3.9356892 -24.811596 -2.0235472 0
-7.1441226 -46.208916 -0.72818959 0
-1.4182032 -9.3806429 -1.259343 0
-1.3781888 -9.3756084 -1.259411 0
-1.3331721 -9.355567 -1.2545041 0
-1.288156 -9.3405333 -1.2545881 0
-1.2431419 -9.3354912 -1.2496556 0
-1.2031275 -9.3304567 -1.2497231 0
-1.1581117 -9.3154163 -1.2448065 0
-1.1180966 -9.3053808 -1.2448819 0
-1.0730808 -9.2903385 -1.2399657 0
-1.0280664 -9.285305 -1.2400326 0
-0.98804843 -9.2552624 -1.2351395 0
-0.94303566 -9.2602291 -1.2351902 0
-0.90302002 -9.2451859 -1.2302725 0
-0.86300582 -9.2401514 -1.2303392 0
-0.81798929 -9.220109 -1.2254297 0
-0.77297217 -9.1950674 -1.2205272 0
-0.73295796 -9.190033 -1.2205933 0
-0.69294167 -9.1699896 -1.2156827 0
-0.64792687 -9.1599474 -1.2107562 0
-0.60791272 -9.1549139 -1.210822 0
-0.56789637 -9.1348696 -1.2059113 0
-0.52288145 -9.124835 -1.2059844 0
-0.48286387 -9.0947933 -1.2010877 0
-0.44284979 -9.0897579 -1.2011528 0
-0.6034646 -13.514817 -1.27955 0
-0.56353909 -13.746451 0.94071412 0
-0.50843006 -13.444755 -1.2697828 0
-0.40814885 -11.519824 -1.3226992 0
-0.44840163 -13.359706 -1.2599951 0
-0.41338173 -13.274675 -1.2501637 0
-0.21757254 -7.524488 -1.1237338 0
-0.27809882 -11.429715 -1.3080142 0
-0.26331693 -13.099564 -1.2306306 0
-0.20329858 -13.084531 -1.2307353 0
-0.14828297 -13.089497 -1.2308106 0
-0.088264473 -13.074463 -1.2309159 0
-0.033249587 -13.08443 -1.2309839 0
0.026778566 -12.994382 -1.2211959 0
0.08179868 -12.964341 -1.216321 0
0.18625109 -17.209438 -1.3003469 0
0.097555481 -7.434123 -1.1093154 0
0.15738077 -8.8591671 -1.1623435 0
0.27688828 -12.709179 -1.1869678 0
0.70504683 -26.98974 -1.5669905 0
0.25241891 -8.8190699 -1.1575397 0
0.41692895 -12.704094 -1.1871753 0
0.97518855 -26.394611 -1.5282413 0
0.34745708 -8.7739649 -1.1477414 0
0.55696803 -12.699008 -1.1873829 0
0.34265661 -7.3438277 -1.094793 0
0.80657262 -15.983982 -1.1880018 0
0.3876746 -7.333765 -1.0898762 0
0.62225139 -10.808942 -1.2251939 0
0.96165758 -15.633857 -1.1587269 0
0.46770591 -7.3086734 -1.0900258 0
0.73229665 -10.713837 -1.2154919 0
1.1067464 -15.243723 -1.1244955 0
0.54773879 -7.2685676 -1.0801951 0
0.68258649 -8.6086025 -1.1234597 0
1.0421288 -12.45866 -1.1634201 0
2.1007662 -23.824015 -1.358532 0
0.77762192 -8.5635042 -1.1186544 0
1.177171 -12.408566 -1.1586812 0
2.2659352 -22.85384 -1.2951692 0
0.86765808 -8.5134048 -1.1138549 0
1.3172046 -12.433485 -1.1638449 0
2.4410744 -22.113689 -1.246479 0
0.95269489 -8.4532986 -1.1040663 0
1.4622364 -12.47341 -1.1739895 0
2.6611514 -21.893589 -1.2321056 0
1.2825086 -10.323314 -1.1668315 0
1.8470477 -14.388203 -1.0567729 0
0.92789942 -7.088069 -1.0559965 0
1.3875505 -10.243209 -1.1570942 0
2.0120847 -14.408117 -1.0569744 0
1.0029304 -7.0579691 -1.0511458 0
1.4875927 -10.158104 -1.1473606 0
2.1821189 -14.458045 -1.0671402 0
1.0779617 -7.0278749 -1.0512947 0
1.5926342 -10.078004 -1.1426188 0
2.3021877 -14.187924 -1.0426953 0
1.1479946 -6.9777679 -1.0414664 0
1.6926759 -9.9928989 -1.1328801 0
2.4622283 -14.172837 -1.0429364 0
1.2230259 -6.942668 -1.0366186 0
2.842062 -15.77711 -0.44616446 0
2.3673956 -12.967979 -1.2445439 0
1.2780522 -6.9025855 -1.0317543 0
1.8727489 -9.8527117 -1.1183289 0
5.4308224 -28.002945 -1.0171636 0
2.51246 -12.777843 -1.2250103 0
1.3680893 -6.8624663 -1.0269316 0
2.9672854 -14.607676 -1.0930138 0
1.6479862 -8.0074615 -1.0506761 0
3.751967 -17.857559 -0.97442305 0
2.0628307 -9.6824989 -1.0988349 0
5.7760844 -26.642694 -0.9595927 0
2.7475598 -12.51763 -1.2057087 0
1.5081519 -6.7872701 -1.0222342 0
3.4822893 -15.367604 -1.1726189 0
1.8080555 -7.8972602 -1.0410527 0
4.1170769 -17.657373 -0.96520913 0
3.587338 -15.207511 -1.1579915 0
2.9226427 -12.267447 -1.1813025 0
1.623201 -6.732111 -1.0174674 0
3.6723917 -14.992416 -1.1434195 0
1.9381105 -7.8120961 -1.0313461 0
4.512125 -17.89727 -0.99039114 0
2.3929732 -9.3921213 -1.0697011 0
6.3914866 -24.672279 -0.88323128 0
3.1227453 -11.947219 -1.1520351 0
1.7582626 -6.6569076 -1.0077617 0
3.9475 -14.702206 -1.1242024 0
2.0931783 -7.706893 -1.0217055 0
5.1071572 -18.517172 -1.0452983 0
2.5680521 -9.2219124 -1.055178 0
6.4467731 -22.801979 -0.80097246 0
3.342838 -11.712005 -1.1326576 0
2.638082 -9.1668301 -1.050352 0
1.8983324 -6.5466838 -0.99810874 0
4.2426162 -14.391974 -1.1050334 0
2.2532535 -7.5766697 -1.0121083 0
5.5022864 -18.211952 -1.0312527 0
2.7581353 -9.0566835 -1.0406677 0
7.4417748 -24.081905 -0.8704617 0
3.5779369 -11.466769 -1.1133126 0
2.0333931 -6.4664803 -0.98839688 0
8.0967035 -25.381939 -0.93446171 0
4.5327282 -14.101743 -1.0858228 0
2.4183266 -7.4564409 -0.99749219 0
5.8674192 -17.836729 -1.0172558 0
2.9432185 -8.8814535 -1.0261558 0
8.6617489 -25.786861 -0.96462274 0
4.7127991 -13.916596 -1.0763148 0
3.8180437 -11.191508 -1.0890156 0
2.1784694 -6.326231 -0.9737792 0
4.812839 -13.811513 -1.0715926 0
2.5833986 -7.3462219 -0.99285805 0
6.1575618 -17.311485 -0.98837626 0
3.9531059 -11.021359 -1.0794253 0
2.2635117 -6.266089 -0.96897721 0
4.992907 -13.636367 -1.062062 0
3.1783321 -8.6161346 -1.0018264 0
2.3135359 -6.2260056 -0.96409416 0
5.0929451 -13.541283 -1.0573224 0
2.7234728 -7.1909904 -0.97825837 0
9.2321043 -24.081415 -0.89773715 0
5.1829848 -13.426193 -1.0475998 0
3.30339 -8.4959669 -0.99215496 0
15.140986 -38.486576 -0.64494419 0
6.6327481 -16.74115 -0.96476567 0
4.2532434 -10.656012 -1.050312 0
2.8385322 -7.0707994 -0.96357131 0
15.576075 -38.351494 -0.64566851 0
5.3780746 -13.146 -1.0332297 0
3.4334564 -8.3307753 -0.97754288 0
2.5086393 -6.0456529 -0.94458938 0
9.6773348 -23.086102 -0.86467016 0
5.4881225 -13.005891 -1.0235595 0
3.5034928 -8.2456713 -0.97274888 0
2.5586698 -5.9855494 -0.93973756 0
9.8224144 -22.72599 -0.85534358 0
5.5931711 -12.845781 -1.0139017 0
3.5685296 -8.1455631 -0.96296489 0
2.6186996 -5.9354458 -0.93487549 0
16.846346 -37.83123 -0.64791787 0
7.1879725 -16.030725 -0.93641913 0
4.5834131 -10.155572 -1.0114053 0
3.1036606 -6.8303862 -0.94422054 0
17.266438 -37.636139 -0.64867318 0
7.3130279 -15.840616 -0.92682886 0
4.6584544 -10.025463 -1.0016729 0
2.7137609 -5.8002348 -0.92017484 0
7.3980737 -15.660525 -0.91717625 0
4.7184873 -9.930377 -0.99687743 0
3.2137175 -6.7202029 -0.93950486 0
18.051594 -37.365978 -0.6549561 0
5.9483528 -12.245362 -0.98015261 0
3.8286629 -7.8301611 -0.93870628 0
2.8338103 -5.7600613 -0.92537272 0
10.492775 -21.11545 -0.80332828 0
6.0334001 -12.075252 -0.97047889 0
3.8836987 -7.7250524 -0.92891204 0
2.8788404 -5.6899529 -0.915519 0
10.592851 -20.735331 -0.78895438 0
6.1334443 -11.945141 -0.96076977 0
3.9487331 -7.6399479 -0.92409992 0
2.913871 -5.6098447 -0.90567029 0
10.702922 -20.390217 -0.77954113 0
6.2234893 -11.795034 -0.95607102 0
5.0136471 -9.4449396 -0.96286857 0
3.4438426 -6.454782 -0.91512907 0
7.9633284 -14.770005 -0.88402009 0
4.058794 -7.4847541 -0.90943229 0
10.863034 -19.845032 -0.7604537 0
5.1137009 -9.2847881 -0.9531945 0
3.0489385 -5.5046015 -0.90096045 0
6.4235859 -11.479793 -0.93670785 0
3.5439055 -6.3045726 -0.90544188 0
8.1734314 -14.389782 -0.86475551 0
4.1888599 -7.3345447 -0.89977551 0
11.078165 -19.219803 -0.74151897 0
5.2337775 -9.0195665 -0.93367445 0
3.1539934 -5.4093976 -0.89620268 0
6.5836687 -11.184574 -0.92227554 0
3.6639624 -6.1893649 -0.89572215 0
8.3785238 -14.024565 -0.85046136 0
4.3039217 -7.1643357 -0.89012527 0
11.298283 -18.634581 -0.72252083 0
5.3688459 -8.8043518 -0.91910625 0
3.2640452 -5.3241944 -0.89143324 0
6.7387476 -10.889357 -0.90782678 0
3.7690184 -6.064157 -0.88600302 0
8.568615 -13.644347 -0.83615506 0
5.4538941 -8.6392021 -0.90940952 0
3.8240402 -6.0240774 -0.88610637 0
26.042177 -40.714489 0.30577826 0
8.6536598 -13.449239 -0.83149552 0
5.5039291 -8.5040913 -0.89963293 0
3.874068 -5.9589758 -0.8862443 0
26.487265 -40.4044 0.30493683 0
8.7387047 -13.254128 -0.82183099 0
5.5589628 -8.3889828 -0.88983941 0
3.9290953 -5.8988724 -0.88137662 0
27.052343 -40.28931 0.30422363 0
8.8137484 -13.059017 -0.81215966 0
4.5940704 -6.7688136 -0.86593616 0
11.773561 -17.199022 -0.67985451 0
5.6390162 -8.1938105 -0.88016963 0
3.489176 -5.0386791 -0.87202883 0
7.0689392 -10.128808 -0.86413693 0
4.679111 -6.6686687 -0.86114645 0
3.5241964 -4.9985957 -0.86711693 0
11.888648 -16.718842 -0.66556466 0
7.1289759 -9.9787006 -0.85938334 0
5.7440743 -7.9986167 -0.86551511 0
4.0891886 -5.6635165 -0.86183047 0
3.5792265 -4.9384747 -0.86724722 0
28.622633 -39.193363 1.4263077 0
28.622677 -38.978935 0.30106691 0
11.988731 -16.24366 -0.65124905 0
9.0989199 -12.273577 -0.78341758 0
7.2440405 -9.7235041 -0.84480798 0
4.8191919 -6.438375 -0.84656942 0
3.6542666 -4.8583112 -0.86241734 0
9.1789608 -12.093466 -0.77370775 0
4.8592148 -6.373291 -0.84168613 0
12.108822 -15.748458 -0.636971 0
5.9041762 -7.6382747 -0.84611058 0
3.7093019 -4.7781663 -0.85756826 0
7.3391204 -9.3682604 -0.82532907 0
4.2992878 -5.4581289 -0.85728061 0
9.309041 -11.718246 -0.75927973 0
4.9642711 -6.2180843 -0.83696759 0
12.228919 -15.193233 -0.6227411 0
6.0092382 -7.4230599 -0.83145952 0
3.8043513 -4.6779618 -0.85277081 0
7.4191899 -9.0530405 -0.80577791 0
4.3793406 -5.3129196 -0.84752488 0
9.4341192 -11.358025 -0.74482179 0
5.0593262 -6.0578742 -0.82724178 0
12.329014 -14.643009 -0.60847569 0
6.1042981 -7.2128482 -0.8217926 0
3.8694007 -4.5527539 -0.842978 0
7.4892583 -8.7328215 -0.79120922 0
4.4643922 -5.1777134 -0.84275591 0
9.5491953 -10.987807 -0.73534536 0
5.1543803 -5.9026647 -0.81750393 0
12.454103 -14.142786 -0.59415483 0
6.1943574 -6.9976354 -0.81211495 0
3.9644489 -4.457551 -0.84316552 0
9.6192474 -10.727652 -0.72069776 0
6.224381 -6.907548 -0.80224204 0
4.5444484 -5.0224814 -0.82800293 0
33.283428 -36.502949 0.29409254 0
9.6842842 -10.557543 -0.71593738 0
7.6493621 -8.3024769 -0.77182591 0
5.2844491 -5.7073956 -0.81282771 0
4.0494971 -4.3523455 -0.83835089 0
9.7343197 -10.382433 -0.71117282 0
6.3094382 -6.6973362 -0.79254329 0
4.6394978 -4.9022775 -0.82821035 0
20.629009 -21.637564 -0.40733603 0
9.779355 -10.202324 -0.70640528 0
6.3494668 -6.5972295 -0.78768778 0
4.6695232 -4.8221726 -0.82331848 0
20.564072 -21.087439 -0.39787146 0
9.8193903 -10.027212 -0.69662964 0
6.3894944 -6.4921236 -0.78283012 0
4.7045474 -4.7570682 -0.81841886 0
20.579126 -20.647318 -0.38835475 0
9.8644247 -9.8471041 -0.69185066 0
6.4395223 -6.4020181 -0.77796495 0
4.7345724 -4.681963 -0.81352079 0
20.494186 -20.112194 -0.37885442 0
9.904459 -9.6719942 -0.68706405 0
6.4745498 -6.2919121 -0.77310264 0
4.7745962 -4.616859 -0.808617 0
4.219614 -4.0618291 -0.82379389 0
20.429253 -19.517048 -0.36941645 0
9.9644995 -9.4768629 -0.67730844 0
6.5195827 -6.1667848 -0.76826179 0
4.8196254 -4.5367355 -0.8087306 0
20.319307 -18.986925 -0.35987774 0
10.004532 -9.3067532 -0.67250931 0
6.5496097 -6.0616789 -0.76339054 0
4.8546491 -4.4716315 -0.80382228 0
20.264359 -18.531805 -0.35530242 0
10.049564 -9.1416445 -0.66770279 0
6.5896358 -5.9665737 -0.75851369 0
4.879673 -4.3965273 -0.79891455 0
4.3196878 -3.8714972 -0.80905497 0
30.49424 -27.151716 0.28634033 0
20.164431 -17.866634 -0.34088019 0
12.844563 -11.326511 -0.51741898 0
10.084616 -8.851469 -0.65800822 0
8.0596552 -7.0414228 -0.71843529 0
8.0646601 -7.0114007 -0.71346498 0
8.0696659 -6.9863796 -0.71349335 0
6.6646934 -5.7463408 -0.74877691 0
5.6797132 -4.8713069 -0.76897669 0
4.9797282 -4.2512794 -0.79411924 0
29.549391 -25.046434 0.28494769 0
19.71954 -16.631363 -0.31676409 0
10.154677 -8.5262499 -0.64336205 0
6.7147293 -5.6061931 -0.74393654 0
5.7047472 -4.7411599 -0.76411414 0
5.7197518 -4.7361398 -0.76413083 0
6.7347445 -5.5511293 -0.73900211 0
6.7497492 -5.5361085 -0.73902309 0
5.7397661 -4.6860766 -0.75918663 0
5.0247793 -4.0810499 -0.78430367 0
5.0297837 -4.0710292 -0.78431892 0
5.0297885 -4.0510073 -0.77933586 0
5.0347929 -4.0359864 -0.77935171 0
5.0497975 -4.0259662 -0.77936673 0
5.0548019 -4.0109458 -0.77938247 0
5.0548062 -3.9959247 -0.77939808 0
5.7948041 -4.5609093 -0.75432992 0
6.8047991 -5.335897 -0.72923565 0
8.2247915 -6.4208875 -0.69410384 0
8.2347965 -6.4008665 -0.69412792 0
6.829814 -5.2808347 -0.72929621 0
6.8348188 -5.2608137 -0.72931635 0
6.8448234 -5.2457924 -0.72933578 0
6.8498287 -5.2257705 -0.72435606 0
6.8598337 -5.2107496 -0.72437525 0
6.8698382 -5.1907287 -0.72439504 0
5.8448501 -4.3957009 -0.74950099 0
5.1298599 -3.8406761 -0.77457583 0
4.5498681 -3.3906522 -0.78963602 0
17.129793 -12.675519 1.2762547 0
4.5498767 -3.3556104 -0.78466237 0
5.1498775 -3.7805932 -0.76963317 0
5.879878 -4.3005757 -0.74459815 0
6.9148769 -5.0355601 -0.71954763 0
6.9298811 -5.0255394 -0.71956539 0
5.8998914 -4.2555127 -0.7396456 0
4.5899024 -3.2904868 -0.78473568 0
17.319853 -12.345414 0.77589315 0
17.38986 -12.335395 0.77585137 0
17.424866 -12.300376 0.77580804 0
17.639872 -12.395329 1.2857729 0
4.6099234 -3.2303836 -0.77979505 0
5.2049251 -3.6303654 -0.76478243 0
5.2199292 -3.6253445 -0.76479506 0
5.2249336 -3.6103237 -0.76480806 0
5.2249379 -3.5953031 -0.75982106 0
5.2299423 -3.5802822 -0.75983393 0
5.2349467 -3.5652614 -0.75984693 0
5.2399507 -3.5552406 -0.75985944 0
5.2499552 -3.5402198 -0.75987196 0
5.2549596 -3.5301991 -0.75988436 0
5.259964 -3.5151787 -0.75989676 0
5.269968 -3.5051579 -0.75990891 0
5.2649722 -3.485137 -0.75992131 0
5.2749767 -3.4751163 -0.75993335 0
5.2699804 -3.4550955 -0.75494552 0
5.2849846 -3.445075 -0.75495744 0
5.289989 -3.4350543 -0.75496924 0
5.2899933 -3.4200337 -0.75498104 0
5.2949977 -3.4050126 -0.75499296 0
5.3000002 -3.3900001 -0.755 0
5.2950001 -3.375 -0.75 0
5.3099999 -3.365 -0.755 0
5.3099999 -3.3499999 -0.75 0
6.04 -3.79 -0.72000003 0
6.04 -3.7750001 -0.72000003 0
6.0450001 -3.7550001 -0.72000003 0
6.0450001 -3.74 -0.72000003 0
6.0450001 -3.72 -0.72000003 0
6.0549998 -3.71 -0.72000003 0
6.0599999 -3.6900001 -0.71500003 0
6.0700002 -3.6800001 -0.71500003 0
6.0700002 -3.665 -0.71500003 0
6.0700002 -3.645 -0.71500003 0
6.0799999 -3.635 -0.71500003 0
6.0799999 -3.615 -0.71500003 0
6.0900002 -3.5999999 -0.71500003 0
6.0900002 -3.585 -0.71500003 0
6.0999999 -3.5699999 -0.71500003 0
6.0999999 -3.5550001 -0.71000004 0
6.105 -3.54 -0.71000004 0
6.1100001 -3.52 -0.71000004 0
6.1100001 -3.5050001 -0.71000004 0
6.1199999 -3.4949999 -0.71000004 0
6.125 -3.4749999 -0.71000004 0
6.1199999 -3.4549999 -0.71000004 0
6.1399999 -3.45 -0.71000004 0
6.1350002 -3.4300001 -0.71000004 0
6.145 -3.415 -0.71000004 0
6.145 -3.4000001 -0.70500004 0
5.4200001 -2.98 -0.73500001 0
5.415 -2.9649999 -0.73500001 0
4.8299999 -2.6300001 -0.755 0
20.24 -10.935 0.81500006 0
18.445 -9.9049997 -0.20500001 0
13.195 -7.0450001 -0.41999999 0
10.565 -5.6100001 -0.55499995 0
8.6149998 -4.5500002 -0.63 0
7.2800002 -3.8199999 -0.67999995 0
6.1999998 -3.2349999 -0.70500004 0
5.4650002 -2.835 -0.73000002 0
4.8699999 -2.5150001 -0.755 0
26.705 -13.665 0.28 0
13.22 -6.7249999 -0.41 0
8.6750002 -4.3850002 -0.625 0
6.2399998 -3.135 -0.70000005 0
4.8850002 -2.4400001 -0.75 0
13.23 -6.5450001 -0.41 0
8.6899996 -4.27 -0.625 0
6.25 -3.05 -0.69500005 0
5.5149999 -2.675 -0.72500002 0
4.9000001 -2.365 -0.745 0
5.52 -2.6500001 -0.72500002 0
5.5100002 -2.6300001 -0.72500002 0
5.5300002 -2.625 -0.72500002 0
5.52 -2.605 -0.72500002 0
5.5300002 -2.595 -0.72500002 0
5.5349998 -2.5799999 -0.72500002 0
4.9349999 -2.29 -0.745 0
22.145 -10.19 0.84500003 0
22.18 -10.14 0.84500003 0
22.225 -10.105 0.84500003 0
22.26 -10.06 0.84500003 0
22.309999 -10.025 0.85000002 0
22.385 -9.9949999 0.28 0
22.485001 -9.9750004 0.28 0
22.465 -9.915 0.28 0
