# .PCD v0.7 - Point Cloud Data file format
VERSION 0.7
FIELDS x y z intensity
SIZE 4 4 4 4
TYPE F F F F
COUNT 1 1 1 1
WIDTH 1371
HEIGHT 1
VIEWPOINT 0 0 0 1 0 0 0
POINTS 1371
DATA ascii
-12.806102 2.6043985 -1.5840856 0
-16.519232 3.3896434 5.9477553 0
-4.6869559 0.92423218 0.38389441 0
-15.622057 3.1658905 8.7300282 0
-8.1122074 1.5829295 -1.0934014 0
-38.800999 7.6595998 -1.6445298 0
-4.6880155 0.89600945 0.72406697 0
-12.714752 2.4417112 -1.5680112 0
-13.931796 2.6850941 4.3294649 0
-4.6735873 0.87057739 0.71923113 0
-12.71554 2.4052556 2.697288 0
-16.547203 3.0806372 -1.7205415 0
-4.6439223 0.83798188 0.38444555 0
-4.5843773 0.81668788 0.38462979 0
-4.6098418 0.81401718 0.71462667 0
-12.424754 2.2148836 -1.5213612 0
-4.6345 0.80140793 0.16466594 0
-4.6399684 0.79831856 0.49468589 0
-8.1960907 1.413623 -1.1024662 0
-12.995413 2.2623777 4.0429096 0
-4.6454306 0.77833432 0.49479818 0
-4.6248484 0.76360339 -0.27511051 0
-4.5608692 0.74529499 0.27506983 0
-15.607744 2.6390772 3.6231239 0
-4.8701134 0.79232329 0.38949251 0
-4.6200819 0.74215299 -0.49998328 0
-4.5558848 0.72266877 -0.15979975 0
-4.6215672 0.72764111 0.49511826 0
-13.769899 2.2240565 2.5523798 0
-12.948727 2.0439131 -1.5858352 0
-12.94515 2.0449522 4.0242658 0
-4.6072593 0.69719881 0.49531171 0
-16.324633 2.5337353 2.9680765 0
-12.950617 1.9584347 -1.5853223 0
-16.326265 2.4426208 -1.6814747 0
-20.584753 3.0454073 -1.6991845 0
-16.313023 2.3619261 -1.6759783 0
-16.308796 2.3266156 -1.6757609 0
-14.539273 2.0610423 3.0276191 0
-14.480242 2.0145652 3.0179524 0
-6.0490842 0.79886645 -0.88172412 0
-17.267321 2.3137519 5.2535272 0
-16.133976 2.0868168 -1.6491507 0
-12.738252 1.6073654 -1.5480143 0
-8.2651358 1.00779 -1.105118 0
-15.187148 1.8753197 6.2381735 0
-16.539942 2.0033095 6.3261085 0
-16.580694 1.9689603 6.3362737 0
-20.04104 2.2852879 -1.6340926 0
-12.672731 1.3999252 -1.5317131 0
-14.828694 1.6293532 3.0749228 0
-19.700619 2.0674145 -1.5974613 0
-6.0436425 0.59275442 -0.87550879 0
-15.556643 1.5480808 3.9697254 0
-19.635433 1.8397717 -1.5860393 0
-6.0351801 0.52226883 -0.87008917 0
-12.634513 1.0823537 -1.5197899 0
-6.1209188 0.48871848 -0.88497734 0
-15.203215 1.2457478 4.2568698 0
-19.482975 1.4795836 -1.5687467 0
-6.157321 0.42407763 -0.88963604 0
-15.515643 1.0638666 -1.5574594 0
-6.0633192 0.37705863 -0.87427104 0
-19.463324 1.2225903 -1.5622009 0
-41.492565 2.473546 -1.7108264 0
-8.6020346 0.45614552 -1.1471974 0
-15.311553 0.77822679 -1.5305737 0
-41.691967 2.0144417 -1.7182922 0
-8.6490202 0.36152226 -1.1516906 0
-15.230098 0.60561895 -1.5194783 0
-40.082348 1.4897854 -1.6336322 0
-8.8858194 0.2754811 -1.1914185 0
-15.048646 0.43109229 -1.4982779 0
-40.405983 1.0632015 -1.6464168 0
-15.035798 0.32524946 -1.4926467 0
-40.116493 0.78578991 -1.6295017 0
-8.8841276 0.11456053 -1.1904829 0
-14.884096 0.16131999 -1.4765397 0
-39.785282 0.34144804 -1.6115772 0
-8.6111736 0.013883656 -1.1446408 0
-33.169323 0.047011238 -2.068507 0
-12.222684 -0.042054467 -1.4478061 0
-38.860626 -0.18988402 -1.5676091 0
-14.534945 -0.13204974 -1.4295156 0
-5.9081616 -0.093163162 -0.83642554 0
-12.2009 -0.20342016 -1.4468625 0
-38.580639 -0.70358902 -1.5493745 0
-12.072441 -0.28128859 -1.4262947 0
-32.386093 -0.81357121 -2.0077879 0
-11.958968 -0.35888112 -1.410744 0
-38.385342 -1.2056212 -1.536298 0
-8.6380224 -0.32748401 -1.1477312 0
-14.328714 -0.57861841 -1.4067698 0
-37.93309 -1.6119884 -1.513535 0
-8.6349077 -0.42306069 -1.1471906 0
-32.431492 -1.6127053 -2.0082593 0
-11.639384 -0.63648731 -1.363866 0
-37.917786 -2.120512 -1.5106177 0
-17.643591 -1.0562383 -1.3772378 0
-11.536266 -0.73398381 -1.3482182 0
-5.9295044 -0.40930974 -0.83968425 0
-42.698223 -2.8421257 -0.73607779 0
-17.451996 -1.236019 -1.3610376 0
-11.493599 -0.85550565 -1.3424944 0
-5.860714 -0.47089455 -0.82927907 0
-14.039334 -1.1323731 -1.3733667 0
-48.976425 -4.0171819 -0.88042164 0
-13.995964 -1.2187238 -1.3678405 0
-38.307259 -3.4212875 -1.5286133 0
-8.0968199 -0.78003293 -1.0596877 0
-32.089275 -3.0936973 -1.9845395 0
-11.319182 -1.1504642 -1.3206824 0
-32.208527 -3.3228369 -1.9933653 0
-8.1739874 -0.89422381 -1.0741298 0
-13.832125 -1.5487541 -1.350844 0
-38.359741 -4.3712869 -1.5283214 0
-8.0955315 -0.97610849 -1.0586053 0
-17.032776 -2.0841198 -1.3208899 0
-8.006403 -1.0230218 -1.0482647 0
-32.22303 -4.1175771 -1.9989316 0
-11.060145 -1.4721733 -1.2886579 0
-16.781309 -2.2801023 -1.299566 0
-5.657248 -0.81131452 -0.79723144 0
-10.922019 -1.5753773 -1.2729609 0
-16.629246 -2.4440098 -1.2885174 0
-7.2078619 -1.1032841 -0.91708326 0
-16.520983 -2.54164 -1.2778782 0
-5.5237989 -0.89414734 -0.77166259 0
-10.750073 -1.7445379 -1.2468749 0
-16.5144 -2.7328873 -1.2818223 0
-5.5400009 -0.95916235 -0.77632904 0
-10.661984 -1.8518159 -1.2412091 0
-16.32201 -2.8824379 -1.260824 0
-5.561193 -1.0240873 -0.78100169 0
-10.523717 -1.9499274 -1.2205493 0
-16.305191 -3.0638618 -1.2648184 0
-5.4720387 -1.0709692 -0.77067173 0
-10.320174 -2.0341949 -1.1949073 0
-16.213184 -3.2366064 -1.2587949 0
-5.463131 -1.1314175 -0.7703433 0
-12.806833 -2.6545565 -1.2438277 0
-49.112549 -10.259092 -0.87086487 0
-12.788319 -2.7403886 -1.243348 0
-39.553631 -8.5544157 -1.5963528 0
-6.6698728 -1.4952511 -0.83949161 0
-12.730659 -2.8772626 -1.2425597 0
-40.078625 -9.1328049 -1.6186954 0
-6.7566218 -1.5941287 -0.85404539 0
-12.637813 -3.004709 -1.2317929 0
-40.156803 -9.619276 -1.6261353 0
-6.4465766 -1.5948495 -0.80376816 0
-9.4758244 -2.3718243 -1.0873386 0
-15.695625 -3.9756937 -1.2193456 0
-5.1569386 -1.3479763 -0.71893787 0
-9.3069353 -2.4403312 -1.0668265 0
-39.735378 -10.452468 -1.6112696 0
-9.1774473 -2.4728868 -1.0465406 0
-5.1733251 -1.42805 -0.72853637 0
-15.500198 -4.2560034 -1.2076792 0
-8.8824387 -2.478395 -1.0062534 0
-5.1841879 -1.4780669 -0.7282871 0
-15.125717 -4.2983384 -1.1771239 0
-6.0291896 -1.7532789 -0.74757957 0
-14.991849 -4.3712621 -1.1666209 0
-5.9394474 -1.7699901 -0.73241687 0
-14.867884 -4.4389977 -1.1561551 0
-5.8798714 -1.7961863 -0.72223127 0
-14.869594 -4.5445552 -1.1556011 0
-5.8956237 -1.8411222 -0.72701311 0
-27.482018 -8.5654917 -1.7104217 0
-8.2948818 -2.6401002 -0.93490362 0
-40.691223 -12.953949 -1.6738111 0
-8.1399355 -2.6480155 -0.91473174 0
-40.167828 -13.079759 -1.6526905 0
-11.405036 -3.7770593 -1.1116365 0
-4.9675746 -1.6828948 -0.70205784 0
-14.469787 -4.8839555 -1.1284809 0
-5.7076845 -1.9701272 -0.70619643 0
-25.679899 -8.8262949 -1.5924891 0
-7.9168391 -2.7727373 -0.88890219 0
-41.053677 -14.37532 -1.7066562 0
-10.815811 -3.848434 -1.0507706 0
-4.8790522 -1.7748762 -0.69152117 0
-7.5614252 -2.7592018 -0.83867979 0
-14.189801 -5.2159963 -1.1115228 0
-4.8548608 -1.8255365 -0.69124734 0
-7.1956077 -2.7207012 -0.78857911 0
-14.142179 -5.3727393 -1.1106755 0
-4.8407464 -1.8810185 -0.69095802 0
-5.5560498 -2.1838059 -0.6899935 0
-5.5061102 -2.189755 -0.6849252 0
-10.319673 -4.1190085 -1.0039756 0
-13.784678 -5.555388 -1.0844455 0
-4.8022542 -1.9771061 -0.69044864 0
-4.8127356 -2.0070212 -0.69030762 0
-5.4527454 -2.2961805 -0.68435144 0
-10.056448 -4.2495093 -0.97810256 0
-5.3929572 -2.3123159 -0.67422593 0
-39.869473 -16.977186 1.3428477 0
-9.82131 -4.2538629 -0.95289552 0
-4.6583943 -2.0549576 -0.66995466 0
-9.6310387 -4.2473383 -0.93278015 0
-26.626167 -11.79632 -1.0379494 0
-9.5163412 -4.2745748 -0.92255414 0
-26.453001 -11.935321 -1.0321043 0
-5.289844 -2.4396687 -0.66351759 0
-9.5736055 -4.4242711 -0.93684793 0
-4.5647469 -2.1469719 -0.6594348 0
-9.4134912 -4.4272003 -0.91671145 0
-26.163736 -12.358047 -1.0247355 0
-9.5003271 -4.5461688 -0.93118298 0
-4.5054045 -2.1931975 -0.65416694 0
-13.020274 -6.3234849 -1.0449595 0
-5.2117591 -2.5716188 -0.66281354 0
-18.028345 -8.8810463 -1.0909556 0
-6.2107 -3.1052945 -0.68090463 0
-25.700136 -12.849291 -1.0119036 0
-9.0402317 -4.5747156 -0.88570035 0
-17.916653 -9.1243362 -1.0896542 0
-5.0674844 -2.6294012 -0.64743161 0
-8.9866314 -4.6761394 -0.8851676 0
-17.940351 -9.3851738 -1.0984004 0
-6.0067158 -3.1892815 -0.66036201 0
-4.4381251 -2.3800867 -0.65822625 0
-12.222487 -6.5492654 -0.98828328 0
-4.9634376 -2.701499 -0.63702822 0
-17.299711 -9.4020863 -1.0578877 0
-5.9176536 -3.2611506 -0.65496671 0
-12.058921 -6.6677928 -0.97760844 0
-4.9344339 -2.7722583 -0.6366787 0
-8.7397919 -4.9216833 -0.87383699 0
-31.154106 -17.605383 -1.3224975 0
-8.695446 -4.9726825 -0.86856759 0
-16.948971 -9.7501898 -1.0459896 0
-5.920361 -3.4518588 -0.66907191 0
-11.806958 -6.913456 -0.96627676 0
-4.2955685 -2.5581405 -0.64731467 0
-5.8963966 -3.5275531 -0.66870356 0
-16.333397 -9.7816744 -1.0104544 0
-4.6954308 -2.8617301 -0.61112809 0
-8.1094151 -4.9580956 -0.8082844 0
-15.649996 -9.6134434 -0.96583235 0
-4.6660991 -2.9124184 -0.61087978 0
-8.111043 -5.0785851 -0.81772327 0
-15.683526 -9.8739691 -0.97462285 0
-4.6570725 -2.9828062 -0.61554992 0
-8.0723495 -5.1796637 -0.81722999 0
-15.378577 -9.9197397 -0.95922875 0
-4.6378827 -3.0433266 -0.61526299 0
-8.1397247 -5.3491573 -0.83648002 0
-4.1179166 -2.7417738 -0.63638413 0
-10.682795 -7.1145902 -0.88467169 0
-4.068006 -2.7526433 -0.63130891 0
-5.559278 -3.774348 -0.64738369 0
-10.538402 -7.1824808 -0.87927949 0
-4.0335097 -2.7933583 -0.63110948 0
-5.4493356 -3.7912769 -0.63225091 0
-10.34862 -7.2260113 -0.86397541 0
-4.0040064 -2.8339906 -0.63091552 0
-5.4454541 -3.8766615 -0.64186156 0
-10.108132 -7.2253056 -0.84885406 0
-3.9392755 -2.8601174 -0.62076712 0
-5.4062619 -3.9425426 -0.64154315 0
-9.9890261 -7.3127327 -0.8433907 0
-3.9552934 -2.9350829 -0.63044012 0
-5.4327426 -4.052454 -0.65105927 0
-14.129243 -10.5549 -0.9106009 0
-4.3863068 -3.3285127 -0.60885859 0
-7.4475193 -5.6624665 -0.78969395 0
-13.798535 -10.555773 -0.89042985 0
-4.3214579 -3.349654 -0.59874034 0
-7.3328185 -5.7045879 -0.77945101 0
-13.518123 -10.575857 -0.87520468 0
-4.3427267 -3.4445965 -0.61332572 0
-7.3041606 -5.8154583 -0.78393745 0
-3.7865589 -3.0531991 -0.61984909 0
-9.436471 -7.603518 -0.8168081 0
-4.323729 -3.5251415 -0.61796045 0
-13.356547 -10.884862 -0.87872577 0
-5.418046 -4.4690452 -0.68418515 0
-28.620426 -23.592474 -1.3530827 0
-7.1556787 -5.9635105 -0.78320944 0
-3.7224722 -3.1344719 -0.61947191 0
-10.625836 -8.9475527 -0.97627056 0
-4.2346506 -3.6118655 -0.61754572 0
-13.139904 -11.204796 -0.87718534 0
-5.5067225 -4.7484293 -0.71797895 0
-26.840244 -23.142578 -1.2743129 0
-6.8297939 -5.9540229 -0.75312364 0
-3.6382184 -3.2060039 -0.61413133 0
-10.266097 -9.0441027 -0.95568931 0
-4.2417979 -3.7822044 -0.63180101 0
-13.515983 -12.046153 -0.93356907 0
-5.4687815 -4.9246178 -0.73219061 0
-19.275764 -17.386095 -0.85699522 0
-7.8163314 -7.1160173 -0.92333555 0
-3.5995238 -3.31691 -0.62363768 0
-9.8858128 -9.1058521 -0.93526947 0
-4.1880918 -3.898417 -0.64128041 0
-14.359138 -13.380966 -1.0329435 0
-7.560463 -7.1002755 -0.89831603 0
-4.2295308 -4.0080271 -0.65581512 0
-13.966352 -13.242328 -1.0084157 0
-7.4554944 -7.1271257 -0.89316285 0
-4.1746583 -4.0289536 -0.65070844 0
-26.700542 -25.709867 -0.47275302 0
-9.4200726 -9.1539164 -0.90489328 0
-4.155211 -4.0794063 -0.65548623 0
-26.487661 -25.954414 -0.47159192 0
-13.521152 -13.340289 -0.98782623 0
-7.2255368 -7.1861386 -0.87783289 0
-4.1259327 -4.1450348 -0.6601938 0
-26.205278 -26.260292 -0.47013393 0
-13.311531 -13.429146 -0.9823643 0
-7.0752592 -7.1986589 -0.86773217 0
-4.0610032 -4.1661243 -0.65509045 0
-25.887413 -26.536646 -0.46880057 0
-13.071321 -13.478391 -0.97207332 0
-6.9248371 -7.2011371 -0.8526808 0
-4.1433401 -4.3452597 -0.68433917 0
-25.604658 -26.822443 -0.46745434 0
-12.856535 -13.55726 -0.96666133 0
-6.8099089 -7.2381325 -0.84749103 0
-4.0581841 -4.3516064 -0.67429435 0
-25.332079 -27.123053 -0.4660522 0
-12.662019 -13.655811 -0.9611733 0
-6.6798329 -7.2653289 -0.84233868 0
-4.0136571 -4.4024119 -0.67406797 0
-25.034307 -27.41399 -0.46468726 0
-12.447066 -13.724621 -0.95581496 0
-6.5698981 -7.302196 -0.83215582 0
-3.948771 -4.4284987 -0.67394567 0
-24.736359 -27.69488 -0.46337673 0
-12.211754 -13.768663 -0.94556212 0
-6.4600253 -7.3440719 -0.82695079 0
-3.8279791 -4.3902674 -0.65408921 0
-17.851166 -20.460062 -0.89798582 0
-6.3750892 -7.3755383 -0.82679987 0
-3.3510461 -3.9171405 -0.6710279 0
-8.2267675 -9.6350622 -0.85747659 0
-3.6618209 -4.3326883 -0.6293112 0
-24.067009 -28.433241 -0.46499416 0
-11.747412 -13.976902 -0.93455291 0
-6.1747332 -7.4037952 -0.81164229 0
-3.1238699 -3.7852552 -0.62156057 0
-7.981503 -9.6891699 -0.8471967 0
-3.6229608 -4.4435053 -0.6388396 0
-11.477738 -14.096622 -0.92898107 0
-4.8293595 -5.9926028 -0.77243543 0
-3.0744872 -3.8511083 -0.62627792 0
-16.741816 -20.899691 -0.8808341 0
-7.7462955 -9.7480812 -0.836905 0
-4.0523148 -5.1534719 -0.77089059 0
-11.157654 -14.202091 -0.91847312 0
-4.6892819 -6.0298371 -0.76226389 0
-3.5239165 -4.5658779 -0.7833184 0
-16.276924 -21.077728 -0.86998069 0
-7.50073 -9.7820816 -0.82672715 0
-4.6042724 -6.0561886 -0.75714517 0
-16.052032 -21.171625 -0.86953974 0
-5.6389761 -7.5074182 -0.78112829 0
-3.4036589 -4.577651 -0.76826179 0
-7.2904167 -9.82547 -0.8165139 0
-3.7915161 -5.1623945 -0.74583673 0
-11.352384 -15.474825 -0.54807901 0
-7.1701961 -9.8473892 -0.81140649 0
-4.3989658 -6.0943704 -0.74696708 0
-3.288393 -4.5893536 -0.75821066 0
-11.096509 -15.488934 -0.54298365 0
-7.0249152 -9.8747082 -0.80627739 0
-4.3188777 -6.1156149 -0.74187863 0
-3.2284083 -4.610249 -0.75312483 0
-10.901583 -15.572183 -0.53763032 0
-6.8897781 -9.9118614 -0.80112886 0
-4.213469 -6.1121526 -0.7319026 0
-3.1634324 -4.6312146 -0.75304949 0
-10.701741 -15.660472 -0.53728032 0
-6.7393847 -9.9291849 -0.79607439 0
-4.1335249 -6.1433811 -0.7317878 0
-3.0983238 -4.642149 -0.74802113 0
-10.532279 -15.778335 -0.53681946 0
-6.5838566 -9.9365358 -0.78606439 0
-3.4462764 -5.2525492 -0.72550344 0
-10.40294 -15.890525 -0.53637516 0
-6.4685779 -9.9532938 -0.78101301 0
-3.9783022 -6.1756673 -0.72168708 0
-2.9882817 -4.6737108 -0.73792267 0
-10.253912 -16.043076 -0.53577638 0
-6.3078527 -9.9456739 -0.77106965 0
-3.8982847 -6.2018423 -0.71659887 0
-2.9129703 -4.669754 -0.73295796 0
-10.110284 -16.203533 -0.095146269 0
-8.9564686 -14.452029 -0.84741426 0
-4.6917033 -7.6317906 -0.73069572 0
-3.2412026 -5.3155127 -0.71530211 0
-2.8379364 -4.6907988 -0.72789323 0
-5.991334 -9.9253273 -0.75621212 0
-3.1861675 -5.3312826 -0.71025431 0
-34.643105 -57.916744 0.5225817 0
-5.87079 -9.9220915 -0.75125206 0
-3.1310611 -5.3420701 -0.71022987 0
-8.3779001 -14.350513 -0.8179338 0
-3.6127396 -6.2559609 -0.70645761 0
-12.962962 -22.507437 -0.83419502 0
-4.375885 -7.6763668 -0.71559584 0
-2.6574376 -4.7082424 -0.71288669 0
-5.5590901 -9.8865395 -0.73146951 0
-3.482121 -6.247757 -0.69653118 0
-12.490623 -22.489479 -0.82436395 0
-4.2253194 -7.6835079 -0.71061218 0
-2.5672791 -4.7244492 -0.70785177 0
-7.7134347 -14.205057 -0.78867042 0
-4.1348991 -7.6797638 -0.70565403 0
-2.5273309 -4.7449975 -0.70778906 0
-5.2170882 -9.8363333 -0.71176171 0
-2.8355308 -5.4011168 -0.69509411 0
-7.3809385 -14.109717 -0.76914012 0
-3.2413235 -6.2660422 -0.68153954 0
-11.709287 -22.716288 -0.81364369 0
-3.9088166 -7.6678505 -0.69077241 0
-2.4071381 -4.7715807 -0.70273304 0
-7.0636482 -14.029144 -0.75455236 0
-3.8285844 -7.6789455 -0.68575621 0
-2.3569989 -4.7772174 -0.69773221 0
-4.8199906 -9.80686 -0.69700754 0
-3.0658553 -6.2933969 -0.67150104 0
-2.312042 -4.7978067 -0.69766903 0
-4.6992092 -9.7834759 -0.68714046 0
-2.6002665 -5.4692411 -0.68492353 0
-6.5853662 -13.925747 -0.73511004 0
-3.5923486 -7.6621194 -0.67591441 0
-2.5400238 -5.4700274 -0.68494546 0
-20.803217 -44.812645 0.46693623 0
-4.4933863 -9.796299 -0.68216574 0
-2.4899673 -5.4856606 -0.67990911 0
-6.2579956 -13.850206 -0.72053039 0
-2.8148484 -6.3016601 -0.65657496 0
-8.6875992 -19.550682 -0.63214397 0
-3.3662419 -7.6550784 -0.66103828 0
-2.111846 -4.8603492 -0.69252551 0
-4.1857495 -9.6802893 -0.65774786 0
-2.349544 -5.5024371 -0.6749078 0
-5.8551755 -13.765622 -0.70601666 0
-2.6543126 -6.3187189 -0.65158117 0
-7.3718133 -17.636967 -0.53518212 0
-3.1601636 -7.6427317 -0.6511786 0
-1.9915037 -4.8768182 -0.68752432 0
-3.9242177 -9.6537113 -0.6479671 0
-2.2089365 -5.5041552 -0.66497493 0
-5.4416647 -13.621029 -0.68675613 0
-3.0194166 -7.634522 -0.64627802 0
-2.4837008 -6.3358641 -0.6466018 0
-9.1933622 -23.434217 5.7284188 0
-5.2957468 -13.602943 -0.68189096 0
-9.2077179 -23.73242 0.37952673 0
-9.1527081 -23.758179 0.37960985 0
-6.4548845 -16.908695 -0.49341813 0
-3.6220472 -9.5825462 -0.63338172 0
-2.8637035 -7.636457 -0.63634694 0
-2.358124 -6.3374033 -0.64166498 0
-1.8009015 -4.8990698 -0.67754591 0
-3.496176 -9.5591106 -0.62353873 0
-1.9983119 -5.536705 -0.65996635 0
-4.8268852 -13.453932 -0.66268647 0
-2.2528532 -6.3586717 -0.63663912 0
-5.7246876 -16.267817 -0.4562659 0
-2.6525993 -7.6290431 -0.62649 0
-1.6855472 -4.9153962 -0.67255461 0
-3.2290289 -9.4773893 -0.60899365 0
-1.8626411 -5.5332685 -0.65006363 0
-4.4486361 -13.323647 -0.64338088 0
-2.0920122 -6.3505569 -0.62676287 0
-5.1772947 -15.814548 -0.42830709 0
-2.4564686 -7.6114054 -0.62166584 0
-1.7672688 -5.5393548 -0.64509642 0
-7.9220233 -24.90275 -0.22147617 0
-4.1610961 -13.222198 -0.63393116 0
-2.9215605 -9.3860912 -0.59451675 0
-1.9565297 -6.3671494 -0.62677932 0
-1.4998118 -4.9274583 -0.66263187 0
-4.5927873 -15.166524 -0.39613292 0
-2.8007054 -9.3625259 -0.58967769 0
-1.8811657 -6.3679991 -0.62182522 0
-1.4394307 -4.9181037 -0.65771139 0
-4.4013739 -15.128871 -0.39138559 0
-2.6796849 -9.323947 -0.58490133 0
-1.8058029 -6.3688383 -0.61687124 0
-1.379163 -4.9187622 -0.65774846 0
-4.1371374 -14.841964 -0.37764403 0
-2.5587804 -9.2953501 -0.58008337 0
-1.7303789 -6.3646898 -0.61693907 0
-1.3240073 -4.9293551 -0.65774763 0
-3.9455781 -14.789256 -0.37295756 0
-2.4429953 -9.27668 -0.57522607 0
-1.6549604 -6.3605094 -0.6120069 0
-1.263798 -4.9349761 -0.6527648 0
-3.7434161 -14.681616 -0.36349341 0
-2.3219352 -9.2330303 -0.56547034 0
-1.579595 -6.3613391 -0.61205435 0
-1.2084744 -4.9305334 -0.64782786 0
-3.5829861 -14.728534 -0.36340871 0
-2.2110422 -9.2042742 -0.56065857 0
-1.5042309 -6.3621383 -0.60710275 0
-1.1482056 -4.9311595 -0.64786673 0
-3.3332424 -14.386337 -0.34988973 0
-2.1003187 -9.1905222 -0.5607841 0
-1.4287578 -6.3529272 -0.60219264 0
-1.0982126 -4.9566655 -0.64780879 0
-3.004319 -13.659857 -0.31290832 0
-1.9792163 -9.1418266 -0.55104876 0
-1.3533912 -6.3537269 -0.60224187 0
-1.0326695 -4.9323115 -0.64294934 0
-2.7905142 -13.392199 -0.29908153 0
-1.8735014 -9.1279688 -0.54617763 0
-1.2829739 -6.3494411 -0.59731495 0
-1.2679009 -6.3495979 -0.59732485 0
-1.2527734 -6.3447542 -0.59735537 0
-1.237646 -6.3399105 -0.59738576 0
-1.2225732 -6.340066 -0.59739578 0
-1.2074988 -6.3402209 -0.59740615 0
-1.409732 -7.4729948 -0.57289159 0
-2.2170019 -11.839284 -0.5104661 0
-2.5157545 -13.537705 0.3362982 0
-2.501766 -13.556284 1.9463577 0
-0.89202452 -4.9386659 -0.63804448 0
-0.87691677 -4.9338155 -0.6380713 0
-12.369716 -69.486076 3.8492754 0
-2.2587068 -12.998 -0.2809622 0
-1.5406777 -9.0214729 -0.53183115 0
-1.0615678 -6.3216734 -0.59260154 0
-0.81165731 -4.9394321 -0.63811553 0
-2.1129789 -13.004578 -0.2810789 0
-1.4349422 -9.0025711 -0.53200889 0
-0.98617083 -6.3173971 -0.5876925 0
-0.75645375 -4.9449449 -0.63815558 0
-1.9513015 -12.92128 -0.27655092 0
-1.3291082 -8.9736366 -0.52722645 0
-0.91571987 -6.3080792 -0.58780658 0
-0.70114762 -4.9404311 -0.63323617 0
-0.68599099 -4.9305744 -0.63328624 0
-0.67593986 -4.9306636 -0.63329899 0
-3.6785448 -26.971315 0.38875622 0
-2.2462554 -16.827501 -0.04635635 0
-1.6625533 -12.699241 -0.26268813 0
-1.4582461 -11.362138 -0.47299168 0
-1.1174499 -8.9157257 -0.51766133 0
-0.90633368 -7.3879914 -0.55870295 0
-0.75480711 -6.29459 -0.58302712 0
-0.64664584 -5.5207462 -0.60608876 0
-0.56543124 -4.9316278 -0.62842119 0
-2.9602032 -26.018969 0.38443565 0
-1.769925 -15.937346 -0.025226027 0
-1.3811877 -12.717122 -0.26290646 0
-1.1906115 -11.239796 -0.46373221 0
-1.1653751 -11.230046 -0.46379688 0
-1.1401907 -11.225296 -0.46384171 0
-0.87034392 -8.8330975 -0.50823784 0
-0.70493019 -7.3498597 -0.54906714 0
-0.58357441 -6.2561212 -0.57336581 0
-0.50068545 -5.4970202 -0.6013521 0
-0.43461442 -4.9127321 -0.62365043 0
-2.160042 -24.927275 0.37948987 0
-1.3028458 -15.477039 -0.017454654 0
-1.0280346 -12.590614 -0.25875041 0
-0.87733984 -11.077801 -0.44967869 0
-0.66851544 -8.7549677 -0.49875489 0
-0.53880179 -7.3213644 -0.54435873 0
-0.44258833 -6.2273536 -0.56863558 0
-0.3750014 -5.4880853 -0.5965271 0
-0.32405424 -4.9086537 -0.62379515 0
-1.5177839 -23.533739 0.37351793 0
-0.92627889 -15.015702 -0.0095987916 0
-0.74082696 -12.523369 -0.2543036 0
-0.62452483 -10.930158 -0.44051495 0
-0.47180554 -8.6867542 -0.49423322 0
-0.37242928 -7.2678275 -0.53974819 0
-0.30170959 -6.2085485 -0.56386673 0
-0.25426888 -5.4740682 -0.59172559 0
-0.21330009 -4.8845081 -0.61401904 0
-0.92958945 -22.009493 0.36709526 0
-0.58706486 -14.778925 -0.0058661997 0
-0.4703185 -12.625927 -0.25920752 0
-0.37709785 -10.817397 -0.43121162 0
-0.27511799 -8.6184711 -0.48470911 0
-0.21116948 -7.2241974 -0.53510058 0
-0.16568694 -6.1746588 -0.55915928 0
-0.1505212 -6.1647849 -0.55921257 0
-0.11833431 -5.4451461 -0.58699512 0
-0.092595421 -4.8704481 -0.61421764 0
-0.36875069 -20.709818 0.36154678 0
-0.22362097 -14.63228 -0.0018141568 0
-0.16565894 -12.833751 -0.26874515 0
-0.10927803 -10.674747 -0.42204717 0
-0.063246801 -8.5402794 -0.48024526 0
-0.034747597 -7.1706305 -0.5255084 0
-0.014606557 -6.1408553 -0.55446625 0
0.0024863682 -5.4210634 -0.58223307 0
0.012909628 -4.8712316 -0.61434913 0
0.24615458 -68.740295 3.7493229 0
0.40291002 -68.651802 3.7438312 0
0.17950723 -20.179869 0.35894206 0
0.16058579 -14.420704 0.0019554198 0
0.18253095 -13.216904 -0.28266105 0
0.16924988 -10.467076 -0.40815571 0
0.15888888 -8.4420786 -0.4708803 0
0.15169513 -7.1221008 -0.52091777 0
0.14657921 -6.1020784 -0.54981005 0
0.14341779 -5.3971071 -0.58250177 0
0.17180748 -6.0922656 -0.5498805 0
0.21225451 -7.0975685 -0.52108681 0
0.20198765 -6.0874982 -0.54992962 0
0.19364673 -5.3974771 -0.58255816 0
0.18423572 -4.8174129 -0.6047684 0
0.75892311 -19.034954 0.35393727 0
0.629246 -14.824825 -0.0070104897 0
0.586317 -13.055312 -0.27872708 0
0.61170781 -13.030499 -0.27385429 0
0.63715082 -13.000705 -0.27400103 0
0.66754246 -12.975956 -0.27412531 0
0.69283962 -12.961161 -0.27421477 0
0.7231831 -12.94141 -0.27432016 0
0.74852633 -12.921613 -0.2744281 0
0.7789132 -12.896843 -0.26955196 0
0.80930191 -12.872091 -0.26967564 0
0.83450317 -12.86729 -0.2697275 0
0.85993701 -12.837491 -0.26987198 0
0.88537073 -12.80769 -0.27001652 0
0.91566139 -12.792917 -0.26510271 0
0.9410938 -12.763114 -0.26524702 0
0.96648234 -12.738311 -0.26537356 0
0.99172789 -12.728507 -0.26544359 0
1.022158 -12.69875 -0.26558486 0
1.2941329 -15.735484 -0.024275362 0
1.3250635 -15.655725 -0.024611145 0
1.3508075 -15.595918 -0.024875373 0
1.3861855 -15.5762 -0.024987966 0
1.4166027 -15.551418 -0.020120353 0
1.4520216 -15.526698 -0.020249993 0
1.48244 -15.501933 -0.020382106 0
1.5178118 -15.482211 -0.02049315 0
1.5480918 -15.472443 -0.02057007 0
1.5835123 -15.44772 -0.020700455 0
1.6140649 -15.407951 -0.020886987 0
1.6444801 -15.383182 -0.021018475 0
1.6748493 -15.363411 -0.021131605 0
1.710127 -15.353683 -0.021205634 0
1.7455403 -15.328957 -0.021334261 0
1.7758603 -15.314164 -0.016428977 0
1.8061823 -15.299391 -0.0165236 0
1.8366845 -15.264616 -0.01669085 0
1.8720043 -15.249886 -0.016782463 0
1.9022799 -15.240108 -0.016858727 0
1.932645 -15.220331 -0.016971201 0
2.4865465 -19.249096 0.3528381 0
2.526829 -19.244402 0.3527711 0
2.5672903 -19.219706 0.35263181 0
2.6078849 -19.180008 0.35243851 0
2.6434786 -19.140268 0.35224289 0
2.6840267 -19.10557 0.35206801 0
2.719485 -19.080826 0.3519268 0
2.7551646 -19.03108 0.35169578 0
2.8052661 -19.046463 0.35170612 0
2.836077 -18.981674 0.35141912 0
2.8765767 -18.951971 0.35126302 0
2.9121196 -18.917221 0.35108665 0
2.9477108 -18.87747 0.35089114 0
4.1341324 -26.100878 0.99224007 0
4.251204 -26.471825 0.99852812 0
4.378108 -26.862837 1.0098897 0
4.5000658 -27.248802 1.0212282 0
4.6270332 -27.634808 1.0325663 0
4.7540107 -28.020811 1.0439018 0
4.8858242 -28.426853 1.055308 0
5.0081253 -28.777805 1.0665114 0
5.097487 -28.893497 1.0668608 0
6.3925257 -35.791267 2.1068447 0
0.84381229 -4.6612992 -0.59122658 0
0.85390347 -4.6563501 -0.59125829 0
0.86399549 -4.6514001 -0.59129035 0
0.87408412 -4.6464324 -0.58632195 0
0.88417494 -4.6414828 -0.58635354 0
0.8942225 -4.6415324 -0.58636749 0
0.90431309 -4.6365824 -0.58639908 0
1.019793 -5.1674652 -0.55949318 0
1.0250192 -5.1474705 -0.55958188 0
1.0399877 -5.1575608 -0.55956006 0
1.0501703 -5.1426082 -0.55962861 0
1.0602671 -5.1376557 -0.55966187 0
1.0703639 -5.1327024 -0.55969524 0
1.0804179 -5.1327486 -0.55971098 0
1.0953878 -5.1428356 -0.55968988 0
1.1054844 -5.1378822 -0.55972314 0
1.1156656 -5.1229277 -0.55979145 0
1.2605371 -5.7339921 -0.5176127 0
1.4681047 -6.6206245 -0.48444888 0
1.7385762 -7.75772 -0.43039003 0
1.7488325 -7.7377582 -0.43048462 0
1.7689204 -7.7378788 -0.43050495 0
1.7840923 -7.7279582 -0.43056247 0
2.1708934 -9.310936 -0.34992364 0
2.7027769 -11.484996 -0.22718117 0
3.3845739 -14.269984 -0.0072699785 0
3.4099593 -14.245125 -0.0073987544 0
3.4402571 -14.230309 -0.007489413 0
4.374527 -17.931936 0.34566146 0
6.6104674 -26.85346 1.0173788 0
9.95539 -40.117023 2.3494976 0
1.1410776 -4.5626512 -0.58699954 0
1.2769692 -5.0636463 -0.55523241 0
1.4371665 -5.6498065 -0.513165 0
1.6750298 -6.521646 -0.48008564 0
1.97105 -7.6188788 -0.42121264 0
2.3836758 -9.1320229 -0.34586927 0
2.9709797 -11.296453 -0.22322759 0
3.718744 -14.016875 -0.0036268234 0
4.7385011 -17.719103 0.34443128 0
7.0835123 -26.286257 1.0046686 0
10.842586 -39.867756 2.3475831 0
1.2418687 -4.5230527 -0.58227766 0
1.3878651 -5.0191116 -0.55054176 0
1.5581369 -5.60535 -0.51349533 0
1.5733148 -5.5904284 -0.51356649 0
1.5833308 -5.5954647 -0.51357198 0
1.5984275 -5.5905414 -0.51360929 0
1.6036054 -5.5755377 -0.51368487 0
1.6186614 -5.5756135 -0.51370513 0
1.8770069 -6.4075532 -0.47580805 0
1.887154 -6.3975854 -0.47586802 0
1.9022986 -6.3876414 -0.47092566 0
1.912405 -6.3826733 -0.47096869 0
2.2489512 -7.4451785 -0.41728082 0
2.7073112 -8.908576 -0.33720312 0
3.3706946 -10.998482 -0.21494856 0
3.3811772 -10.953497 -0.21514583 0
3.4062996 -10.95363 -0.21518549 0
3.4266613 -10.923724 -0.21532762 0
3.4517834 -10.923856 -0.21536723 0
4.3061585 -13.534939 -0.0013481975 0
4.3364711 -13.515101 -0.0014637113 0
4.3617444 -13.500222 -0.0015647113 0
5.5683069 -17.113649 0.34088507 0
8.2205915 -25.082592 0.98336363 0
8.2760077 -25.067905 0.98322487 0
8.3265438 -25.038193 0.97803426 0
8.3721151 -25.003426 0.97782516 0
8.4227247 -24.963696 0.97760201 0
8.4684515 -24.908926 0.97732747 0
8.518981 -24.879192 0.97713768 0
8.5646658 -24.82942 0.97688031 0
8.6102333 -24.794645 0.97667241 0
8.6607227 -24.769909 0.9764998 0
8.7114038 -24.720171 0.97624552 0
8.7619352 -24.69043 0.97605455 0
8.8026552 -24.63563 0.97078013 0
8.8482571 -24.595848 0.97055721 0
8.8987799 -24.566107 0.97036934 0
8.9493027 -24.536362 0.97018158 0
8.9948626 -24.501579 0.96997571 0
9.0602674 -24.486948 0.96984351 0
9.1107101 -24.467199 0.96968925 0
9.1514587 -24.407375 0.96940076 0
9.1871681 -24.35251 0.9691267 0
9.24261 -24.332798 0.96897471 0
9.2981653 -24.298082 0.96877444 0
9.3436871 -24.268288 0.96858382 0
9.3893528 -24.218496 0.96833146 0
9.439868 -24.188738 0.96814573 0
9.4805727 -24.133923 0.96287584 0
9.5211983 -24.089088 0.96263838 0
9.5667477 -24.054291 0.96243536 0
9.6172962 -24.019531 0.96223462 0
9.6629562 -23.969732 0.96198416 0
9.6937275 -23.904819 0.96167994 0
9.7491236 -23.890093 0.96154583 0
9.794631 -23.860289 0.96135986 0
9.84025 -23.815485 0.96112657 0
9.8809862 -23.755655 0.95584178 0
9.9216394 -23.705814 0.9555912 0
9.9623289 -23.65097 0.95532525 0
10.00772 -23.63616 0.95518804 0
10.063185 -23.611423 0.95502341 0
10.108833 -23.561613 0.95477617 0
10.149443 -23.516766 0.95454359 0
10.214685 -23.522099 0.95447791 0
10.255331 -23.472248 0.95422935 0
10.295939 -23.427397 0.9539969 0
10.34151 -23.387579 0.95378244 0
10.377189 -23.332691 0.95351732 0
10.422838 -23.282883 0.94826996 0
10.463368 -23.248028 0.94806993 0
10.508971 -23.203207 0.94784117 0
10.5495 -23.168348 0.94764161 0
10.58521 -23.108454 0.94736278 0
10.620881 -23.053558 0.94709992 0
10.666407 -23.018734 0.94690335 0
10.687259 -22.938744 0.94155788 0
10.742745 -22.908987 0.94138145 0
10.78334 -22.864124 0.94115293 0
10.823969 -22.81426 0.94090939 0
10.859527 -22.774357 0.94069493 0
10.914944 -22.754595 0.94054782 0
10.955569 -22.704725 0.94030523 0
11.010981 -22.684961 0.94016075 0
11.056427 -22.660126 0.93999708 0
11.092049 -22.610222 0.93975377 0
11.137565 -22.575384 0.93956006 0
11.178185 -22.525511 0.9393189 0
11.223699 -22.490671 0.93912566 0
11.264282 -22.445795 0.93890035 0
11.289971 -22.38583 0.93362403 0
11.325588 -22.335918 0.93338227 0
11.361308 -22.271006 0.93309569 0
11.387032 -22.206018 0.93280351 0
11.437573 -22.166208 0.93259907 0
11.48294 -22.15136 0.93246818 0
11.508655 -22.086376 0.93217921 0
11.544299 -22.031473 0.92692482 0
11.579942 -21.976553 0.92667079 0
11.625444 -21.941704 0.92648089 0
11.67091 -21.91185 0.92630613 0
11.711479 -21.866964 0.92608488 0
11.752048 -21.822075 0.92586398 0
11.797477 -21.79722 0.92570484 0
11.838008 -21.757332 0.9254998 0
11.888477 -21.727505 0.92532539 0
11.943803 -21.717712 0.92521513 0
11.969501 -21.652718 0.92493105 0
12.005064 -21.60779 0.92470992 0
12.070319 -21.608063 0.92463326 0
12.110811 -21.573166 0.92444396 0
12.166168 -21.558371 0.92431939 0
12.196761 -21.508404 0.92408264 0
12.242251 -21.473536 0.92389584 0
12.29764 -21.453737 0.92375708 0
12.352993 -21.438934 0.92363298 0
12.383616 -21.383966 0.92338264 0
12.43404 -21.359123 0.92322576 0
12.474526 -21.324219 0.92303813 0
27.099203 -46.106365 2.9202609 0
2.3407624 -3.9703844 -0.57117009 0
2.3409302 -3.950316 -0.56624901 0
2.6080968 -4.3819704 -0.53992236 0
2.6132047 -4.3719463 -0.53997219 0
2.6282461 -4.3719878 -0.53998935 0
2.6284199 -4.3519306 -0.5400697 0
2.6434608 -4.3519716 -0.54008675 0
2.6535347 -4.3469796 -0.54012001 0
2.9653707 -4.8338623 -0.49863264 0
2.980418 -4.8338985 -0.49865195 0
2.9855318 -4.8238678 -0.49870428 0
3.0005786 -4.823904 -0.49872348 0
3.0007563 -4.8038421 -0.49880549 0
3.0257051 -4.8189421 -0.49877831 0
3.0308497 -4.8039126 -0.49884406 0
3.0459609 -4.7939477 -0.49889186 0
3.4816847 -5.4615993 -0.4568679 0
3.4967721 -5.4566278 -0.4569045 0
3.5019238 -5.4415922 -0.45697305 0
3.5170107 -5.4366207 -0.45700952 0
3.5320971 -5.4316483 -0.457046 0
3.5422158 -5.4216442 -0.45709834 0
3.5523355 -5.4116378 -0.4571512 0
3.5674219 -5.4066644 -0.45718756 0
3.577508 -5.401659 -0.45722571 0
3.5876577 -5.3866539 -0.45729187 0
4.1673541 -6.2301202 -0.39976051 0
4.9006977 -7.289464 -0.31158128 0
4.9207754 -7.289505 -0.31161067 0
4.9359474 -7.2745147 -0.31168362 0
4.9461508 -7.2544932 -0.31177202 0
4.9612908 -7.2445016 -0.31183085 0
4.9714918 -7.2244654 -0.30691919 0
4.9816937 -7.2044425 -0.30700728 0
4.9968657 -7.1894488 -0.30708042 0
5.016973 -7.1844869 -0.30712333 0
5.027174 -7.164463 -0.30721113 0
5.0422812 -7.1594696 -0.30725572 0
5.0624194 -7.149507 -0.30731222 0
5.0775571 -7.139513 -0.30737045 0
5.0926948 -7.1295185 -0.30742863 0
5.1028934 -7.1094933 -0.30751583 0
5.118031 -7.0994978 -0.30757383 0
5.1332288 -7.0795026 -0.30765906 0
5.148365 -7.0695066 -0.30771688 0
5.1635313 -7.0545106 -0.30778822 0
5.1736994 -7.0394816 -0.30786195 0
5.1938043 -7.0345144 -0.30790427 0
5.2040005 -7.0144873 -0.30799058 0
5.2191358 -7.0044894 -0.30804804 0
5.2343001 -6.9894915 -0.30811891 0
5.2494645 -6.974493 -0.30818966 0
5.2645688 -6.9694943 -0.30823347 0
5.2747922 -6.9444656 -0.30833241 0
5.2948956 -6.939496 -0.30837438 0
5.3050294 -6.9294662 -0.30843309 0
5.325192 -6.9144955 -0.30850169 0
5.3303843 -6.8944354 -0.30858853 0
5.3455482 -6.8794327 -0.30865934 0
5.3606801 -6.869431 -0.30871603 0
5.3758411 -6.8544297 -0.30878589 0
5.3909731 -6.8444276 -0.30884239 0
5.4011335 -6.8293958 -0.30891374 0
5.4262056 -6.8294511 -0.30894038 0
5.4363947 -6.8094187 -0.30902472 0
5.4465842 -6.7893863 -0.30910894 0
5.4666848 -6.7844114 -0.30915031 0
5.4768438 -6.7693777 -0.30922118 0
5.4920025 -6.7543736 -0.30929026 0
5.5071316 -6.7443681 -0.30934617 0
5.5222621 -6.7343612 -0.30940279 0
5.5324473 -6.7143135 -0.3044863 0
5.552577 -6.704349 -0.3095403 0
5.5577617 -6.6842718 -0.30462524 0
5.5778618 -6.679307 -0.30966613 0
5.5930161 -6.6642871 -0.30473438 0
5.6032009 -6.6442513 -0.30481723 0
5.6183276 -6.6342435 -0.30487254 0
5.6334543 -6.6242347 -0.30492774 0
5.6436377 -6.604198 -0.30501023 0
5.6587634 -6.5941892 -0.3050653 0
6.7418742 -7.8199172 -0.17662105 0
8.3615179 -9.6634989 0.013557792 0
8.3867102 -9.6485138 0.013478547 0
8.4069576 -9.6234989 0.013372242 0
8.4271774 -9.6034851 0.013278902 0
8.4523392 -9.5934973 0.013212711 0
8.4675856 -9.5684547 0.013105333 0
10.947327 -12.316424 0.31577799 0
16.016119 -17.938091 0.89148331 0
22.83437 -25.46316 1.947475 0
3.0522139 -3.399389 -0.56926763 0
3.0821338 -3.4195044 -0.57422674 0
3.0822725 -3.3994284 -0.56929612 0
3.4054153 -3.7410734 -0.53835881 0
3.8130696 -4.173162 -0.50217295 0
3.8231361 -4.1681447 -0.50220501 0
4.3700347 -4.7409582 -0.45563129 0
5.0511765 -5.4544559 -0.3936716 0
5.9262114 -6.3739452 -0.31114772 0
5.931385 -6.3538623 -0.30622938 0
7.0799723 -7.5446944 -0.17796347 0
11.295885 -11.996247 0.31428567 0
14.746385 -15.58727 1.324137 0
3.1678662 -3.3442638 -0.57459617 0
3.8988252 -4.09797 -0.50253665 0
5.1270189 -5.3692493 -0.39406112 0
7.1508336 -7.4595132 -0.17834714 0
11.427266 -11.866132 0.31370065 0
15.644331 -16.172234 0.84544253 0
14.823898 -15.264052 2.3079019 0
3.5514028 -3.6508443 -0.54384553 0
4.5013261 -4.610621 -0.45624182 0
6.087883 -6.2086077 -0.30690417 0
8.9228354 -9.057765 0.010829449 0
11.598787 -11.73105 0.31306148 0
14.801973 -14.905384 1.3016385 0
14.94639 -14.993527 2.2968216 0
3.5868857 -3.5956013 -0.53909063 0
4.5718832 -4.5555167 -0.46150431 0
6.1786594 -6.1334963 -0.31225976 0
7.3577504 -7.2742419 -0.17921004 0
11.760347 -11.58091 0.31236047 0
15.12853 -14.82708 0.81104326 0
15.237987 -14.878867 2.3061163 0
3.2990479 -3.2137799 -0.57522154 0
3.6523557 -3.5454717 -0.54434931 0
4.070384 -3.9324653 -0.50333083 0
4.6575713 -4.4853206 -0.46187416 0
5.3642497 -5.1387172 -0.39515141 0
6.3097849 -6.0182867 -0.31283304 0
7.504149 -7.1289892 -0.17990828 0
9.2210732 -8.7222013 0.009288609 0
12.027881 -11.325665 0.31115037 0
12.063103 -11.305679 0.31104591 0
15.720931 -14.67669 1.3248991 0
3.3746538 -3.1435127 -0.5755738 0
4.1610403 -3.8622587 -0.50369477 0
4.7384367 -4.3850026 -0.46233937 0
6.4257536 -5.9180741 -0.31333026 0
9.3474827 -8.5669079 0.0085947812 0
17.654684 -16.116407 0.87833512 0
16.071917 -14.614866 2.3443358 0
3.7783651 -3.4300656 -0.54492295 0
4.7938795 -4.3348722 -0.46257815 0
6.4963861 -5.8479218 -0.31365487 0
9.4483929 -8.4717417 0.0081453919 0
17.846485 -15.931219 0.87748766 0
16.34811 -14.535189 2.3587961 0
3.8137252 -3.3848884 -0.54512775 0
4.8492932 -4.2897339 -0.46280381 0
6.566987 -5.7827597 -0.31396553 0
9.5592718 -8.381608 0.0077129602 0
18.05817 -15.7661 0.87669683 0
16.639223 -14.470548 2.3732948 0
3.8590331 -3.3497651 -0.5503056 0
4.9047008 -4.2445898 -0.46302709 0
5.6567087 -4.8680215 -0.40144876 0
6.662683 -5.7076211 -0.31932417 0
7.8877692 -6.7331438 -0.18673396 0
9.7104998 -8.2513838 0.0071054399 0
12.693593 -10.739926 0.30840051 0
18.23152 -15.355072 0.87507832 0
16.942005 -14.212608 1.3471076 0
3.5560269 -2.9778101 -0.5813874 0
3.9296317 -3.2744579 -0.55065131 0
4.3779311 -3.636431 -0.50975454 0
4.9956203 -4.1291866 -0.46352908 0
5.7627473 -4.7426028 -0.40200469 0
6.8038659 -5.5722523 -0.31994113 0
8.0542145 -6.5677509 -0.18747014 0
9.9421701 -8.0760899 0.0062766075 0
12.970908 -10.489504 0.30727509 0
12.996136 -10.464447 0.30716336 0
13.021386 -10.434389 0.30704096 0
13.056589 -10.414379 0.30694348 0
13.071864 -10.37927 0.30680647 0
13.117043 -10.364302 0.30672249 0
13.137291 -10.33422 0.30660006 0
13.157537 -10.304136 0.30647761 0
13.192738 -10.284122 0.30638078 0
13.227962 -10.259105 0.30627337 0
13.243184 -10.233996 0.30616105 0
13.273405 -10.208957 0.3060528 0
13.303627 -10.183915 0.30594474 0
19.417789 -14.790263 0.88215876 0
19.458111 -14.755198 0.88200533 0
19.478476 -14.710041 0.88182592 0
19.543728 -14.690081 0.88170922 0
19.613955 -14.675136 0.8866061 0
19.714115 -14.675333 0.8865422 0
19.814253 -14.680529 0.88648856 0
19.934301 -14.7058 0.8914814 0
20.094259 -14.751245 0.89652538 0
20.219288 -14.781544 0.89652896 0
20.314468 -14.776696 0.90145206 0
20.384718 -14.756746 0.90133798 0
20.49979 -14.776995 0.90131807 0
20.639841 -14.802337 0.90631366 0
20.764915 -14.822621 0.90629494 0
20.949814 -14.883152 0.91137242 0
21.114756 -14.933593 0.91642368 0
21.239832 -14.953856 0.92140341 0
21.330017 -14.948977 0.92132354 0
21.475071 -14.974322 0.92631769 0
21.316011 -14.793386 0.91582358 0
21.151968 -14.607424 0.91032016 0
21.112514 -14.516987 0.9100399 0
13.988826 -9.5675459 0.30337512 0
14.004054 -9.5374241 0.30325893 0
14.03426 -9.5123653 0.30315655 0
10.81877 -7.2941918 -0.0070564151 0
8.7548428 -5.8757057 -0.19539225 0
8.7849426 -5.865705 -0.19544277 0
8.7851038 -5.8405781 -0.19552994 0
8.8052216 -5.8255343 -0.19559243 0
8.8253403 -5.8104906 -0.1956546 0
8.8205214 -5.7803431 -0.19575208 0
8.8555984 -5.7753696 -0.20079106 0
8.865756 -5.7502732 -0.19587487 0
11.010193 -7.1086216 -0.0077893734 0
14.361506 -9.2316484 0.30203289 0
11.055479 -7.0735016 -0.0079376698 0
8.9312429 -5.6850362 -0.20113432 0
8.9463797 -5.6649656 -0.2012071 0
8.9714947 -5.6499381 -0.20126706 0
7.6250892 -4.779614 -0.3382667 0
7.6451731 -4.7695804 -0.33831277 0
7.6552773 -4.7545066 -0.33837065 0
6.483336 -4.0048385 -0.42008188 0
6.4884505 -3.9847577 -0.42014554 0
7.7005873 -4.709342 -0.33853987 0
9.0723696 -5.5244308 -0.20173785 0
11.287191 -6.837729 -0.0088273883 0
14.779045 -8.9058132 0.30075681 0
14.819216 -8.8857765 0.30067167 0
14.844428 -8.8556738 0.30056292 0
14.879598 -8.8356161 0.30047673 0
14.914786 -8.8105555 0.30038142 0
14.944995 -8.7804775 0.30027628 0
14.990164 -8.7604542 0.3001928 0
15.01037 -8.7303352 0.30008566 0
23.661222 -13.697371 0.94595838 0
21.940311 -12.639455 1.4885775 0
4.0852027 -2.3495047 -0.5989871 0
4.0852561 -2.3394308 -0.59902239 0
4.4994197 -2.5608773 -0.56355011 0
5.0532823 -2.8628471 -0.52790558 0
5.7668276 -3.2504025 -0.48707685 0
6.7099028 -3.7637727 -0.42597911 0
7.9723434 -4.4483032 -0.34951368 0
8.0024023 -4.4432979 -0.3495464 0
7.9925542 -4.4131417 -0.34963223 0
8.0126495 -4.398098 -0.34968475 0
8.0227451 -4.3830161 -0.34973916 0
9.4449768 -5.1329384 -0.20815042 0
11.795395 -6.3761802 -0.015510976 0
11.815532 -6.3560925 -0.015584379 0
15.573292 -8.3292284 0.29859811 0
23.148653 -12.32077 0.9170599 0
23.079031 -12.21916 1.5267903 0
4.1759558 -2.208658 -0.60448611 0
4.1859879 -2.2036176 -0.60450959 0
4.6551561 -2.4351964 -0.57403016 0
5.1842189 -2.696964 -0.53348958 0
5.9229074 -3.0644767 -0.49272826 0
6.9111509 -3.5578454 -0.43670574 0
8.1838961 -4.1921697 -0.35539141 0
9.6463404 -4.9120402 -0.21390149 0
9.6814032 -4.9070272 -0.21393654 0
9.6715736 -4.8718543 -0.21403164 0
12.102371 -6.0650034 -0.021568894 0
16.04557 -7.9982252 0.29742309 0
35.976032 -17.826569 1.2477866 0
24.09692 -11.883922 1.5603971 0
4.2714987 -2.1030202 -0.60985768 0
4.2615633 -2.0879092 -0.60990071 0
4.7408009 -2.3094521 -0.57945478 0
4.74085 -2.2993703 -0.57948875 0
4.7508993 -2.2893233 -0.57952058 0
4.7559481 -2.279259 -0.57955337 0
4.7560139 -2.2641771 -0.57959533 0
4.7760453 -2.2591636 -0.57961667 0
4.7810926 -2.2490993 -0.57964909 0
5.3352637 -2.495836 -0.53915894 0
6.1041169 -2.8382874 -0.49847606 0
7.1375699 -3.3015985 -0.447552 0
7.1376634 -3.2814791 -0.44260874 0
8.4307566 -3.8555763 -0.3614668 0
9.9984684 -4.545465 -0.22009543 0
12.529767 -5.6634455 -0.027869552 0
12.559887 -5.6433744 -0.027935147 0
12.575024 -5.6182537 -0.028011322 0
10.06388 -4.4701204 -0.22533032 0
8.5112829 -3.7550957 -0.36177513 0
7.233232 -3.1709254 -0.44795474 0
6.2047873 -2.7025499 -0.50389969 0
5.4209538 -2.3499691 -0.54461312 0
4.8767872 -2.0981817 -0.58512175 0
4.4124846 -1.8866547 -0.62055051 0
17.160233 -7.2558832 0.29498371 0
12.821296 -5.3873301 -0.033713251 0
10.244902 -4.2742658 -0.22591481 0
8.6421385 -3.584264 -0.36728325 0
7.3489223 -3.0301914 -0.45338097 0
6.2903728 -2.5768387 -0.50927746 0
5.5014496 -2.2393315 -0.54994559 0
4.9422207 -1.9975584 -0.59042501 0
4.9472623 -1.9874899 -0.59045506 0
4.9423041 -1.9773904 -0.59048676 0
4.9673457 -1.9673816 -0.59051347 0
4.9723868 -1.9573126 -0.59054327 0
4.4630308 -1.7507077 -0.61595213 0
18.506557 -7.1568336 0.29436278 0
13.153024 -5.0508914 -0.034683108 0
10.466276 -3.9929101 -0.23171923 0
10.476385 -3.9677932 -0.2317836 0
10.49648 -3.9477129 -0.23683873 0
10.506574 -3.9275954 -0.23689535 0
10.526667 -3.9075067 -0.23695013 0
10.546744 -3.8924179 -0.23699751 0
10.561852 -3.8673108 -0.23706058 0
10.566958 -3.8421774 -0.23712447 0
10.592035 -3.8271017 -0.23717049 0
10.602125 -3.8069823 -0.23722604 0
10.627215 -3.7869058 -0.23727891 0
10.652305 -3.7668295 -0.23733148 0
10.652409 -3.7416801 -0.23739514 0
10.682483 -3.7266166 -0.2374396 0
10.677601 -3.6964529 -0.23751059 0
8.984374 -3.086699 -0.37865308 0
9.0044403 -3.071625 -0.37869462 0
7.6757894 -2.6028843 -0.46957287 0
6.5569263 -2.204711 -0.5253154 0
5.7177701 -1.9073176 -0.56087065 0
5.1233711 -1.6956297 -0.6012671 0
5.1234059 -1.6855435 -0.60129523 0
5.1284409 -1.6754711 -0.60132241 0
5.1434751 -1.6654259 -0.60134792 0
5.1485105 -1.6553599 -0.60637486 0
5.1485572 -1.6402667 -0.60140932 0
5.1535912 -1.6301936 -0.60143602 0
5.1586242 -1.6201205 -0.60146272 0
5.1686587 -1.6100674 -0.60648859 0
5.1836782 -1.6050205 -0.60650694 0
5.1837244 -1.5899318 -0.60654104 0
5.1887569 -1.5798579 -0.60656738 0
5.1987891 -1.5697973 -0.60659277 0
5.1988211 -1.5597101 -0.60661972 0
5.2038665 -1.5446366 -0.60665214 0
5.203898 -1.5345495 -0.60667872 0
5.2189298 -1.5245074 -0.61170316 0
5.2239609 -1.5144329 -0.61172879 0
5.2240038 -1.4993391 -0.60676157 0
5.2340226 -1.4942836 -0.61178005 0
5.2440529 -1.4842213 -0.61180472 0
5.2440958 -1.4691337 -0.61183703 0
5.2541256 -1.4590694 -0.61186182 0
5.249155 -1.4489689 -0.61188841 0
5.2591848 -1.4389061 -0.61191273 0
5.2742138 -1.4288554 -0.61193633 0
5.2742548 -1.4137682 -0.61196852 0
5.2942715 -1.4087371 -0.6169858 0
5.2943115 -1.3936503 -0.61701822 0
5.2993393 -1.3835758 -0.61704361 0
4.7996879 -1.2423207 -0.65229595 0
30.349085 -7.7223606 0.29387134 0
11.365788 -2.8622968 -0.25952503 0
7.9928918 -1.9943883 -0.48603001 0
5.9891267 -1.4796433 -0.58192194 0
4.81985 -1.1768786 -0.65244651 0
11.476134 -2.7567871 -0.26476428 0
8.0781174 -1.9190085 -0.49120107 0
5.9943094 -1.4091831 -0.58207631 0
4.8449683 -1.1265284 -0.6525625 0
15.099638 -3.4490378 -0.073644936 0
11.571566 -2.6160777 -0.27006432 0
8.1433992 -1.8184544 -0.49641749 0
6.0494881 -1.3387431 -0.58723474 0
4.875104 -1.066108 -0.65769851 0
4.8751259 -1.0560259 -0.6577214 0
52.306889 -11.14429 9.0841341 0
52.267326 -10.998648 9.0738707 0
52.237682 -10.888027 9.0636501 0
53.956974 -11.125008 10.679116 0
7.0442739 -1.4451934 -0.55709791 0
9.748126 -1.9757426 -0.41121897 0
9.7581787 -1.9556284 -0.41125914 0
11.82236 -2.3397379 -0.2756258 0
16.240421 -3.1925166 1.0557745 0
54.09383 -10.532411 10.683006 0
6.1448364 -1.1878098 -0.59755051 0
5.4801359 -1.0463594 -0.63278925 0
52.790508 -9.9032278 10.416908 0
5.4901862 -1.0212022 -0.63283813 0
5.5052066 -1.0111492 -0.63785851 0
7.1246204 -1.2942975 -0.56239581 0
7.1296535 -1.2792004 -0.56242502 0
8.3092518 -1.4764197 -0.50210655 0
8.3192959 -1.4563243 -0.50714183 0
7.1447496 -1.2339135 -0.56751168 0
8.3393745 -1.4211231 -0.50720692 0
8.3494081 -1.4060222 -0.5072366 0
9.9539165 -1.6539707 -0.42183289 0
16.426882 -2.6861758 -0.10013586 0
36.465656 -5.8945451 0.29012746 0
54.739685 -8.7394257 5.4647899 0
53.589901 -8.4580021 9.2093105 0
5.5804534 -0.87522507 -0.64312291 0
6.2502737 -0.9663806 -0.60797548 0
8.41467 -1.2803017 -0.51246023 0
16.932266 -2.5408812 -0.11538902 0
54.846714 -8.1152 1.5787797 0
54.261303 -7.9412646 9.3034763 0
5.5955615 -0.80980736 -0.64823759 0
6.2703958 -0.89593029 -0.60809875 0
6.315412 -0.88591999 -0.61311495 0
8.4698753 -1.174675 -0.51764262 0
8.4849119 -1.15458 -0.51767397 0
7.2402544 -0.96725792 -0.57298326 0
8.494976 -1.1193531 -0.51773357 0
12.429084 -1.6110585 -0.30191723 0
12.444134 -1.5859188 -0.30195764 0
18.187908 -2.2807295 -0.1408003 0
61.523556 -7.564713 1.7330312 0
56.434361 -6.8456268 6.9318295 0
54.045307 -6.4222217 5.3711557 0
12.559378 -1.4602889 -0.30715171 0
10.274882 -1.171342 -0.44263431 0
10.279926 -1.1462051 -0.44267121 0
10.294961 -1.1260878 -0.44270232 0
8.6003132 -0.91818136 -0.52304947 0
8.6103354 -0.90307409 -0.52307439 0
8.6103668 -0.88295019 -0.52310407 0
10.315109 -1.0355499 -0.44283649 0
8.640419 -0.84775567 -0.52815592 0
7.3506565 -0.70059478 -0.58340383 0
6.4008174 -0.59899509 -0.62358129 0
5.745935 -0.5228858 -0.66371012 0
5.1510348 -0.45687783 -0.69382393 0
30.522652 -2.5854316 0.28502113 0
21.178997 -1.7460102 -0.21147037 0
12.97009 -1.0382406 -0.32274219 0
10.470438 -0.81436229 -0.45314184 0
7.3858275 -0.55965567 -0.58360851 0
5.8060327 -0.42224404 -0.67385423 0
21.944389 -1.5105597 -0.22673658 0
10.535591 -0.69873756 -0.45829049 0
8.7707844 -0.5660845 -0.53854346 0
7.4509277 -0.46409437 -0.59373474 0
6.5210323 -0.38768464 -0.63887382 0
5.201158 -0.29575077 -0.69905281 0
13.300538 -0.71163934 -0.33814529 0
8.8309069 -0.4504132 -0.54368734 0
6.5710883 -0.317251 -0.6439631 0
5.2261872 -0.24035783 -0.70412648 0
13.435712 -0.56594312 -0.343308 0
8.8609962 -0.35482076 -0.54380226 0
6.5861354 -0.24676348 -0.64405119 0
5.2312098 -0.18493189 -0.7041986 0
13.575868 -0.4202362 -0.35346326 0
8.9160814 -0.25425655 -0.5489136 0
6.6161809 -0.17129421 -0.64913762 0
5.2362318 -0.12450361 -0.70427096 0
13.706008 -0.27450112 -0.35861161 0
8.9711494 -0.15868841 -0.55401635 0
6.6462126 -0.10082334 -0.65421677 0
5.2762423 -0.069124185 -0.71433437 0
13.831142 -0.11874508 -0.36375865 0
10.926194 -0.070270322 -0.48398677 0
9.016223 -0.037970673 -0.55913782 0
7.6362429 -0.011307467 -0.61424911 0
5.9512534 0.0056529837 -0.69437206 0
10.981267 0.050420012 -0.48909959 0
6.6862564 0.04515567 -0.65936768 0
14.091337 0.15761742 -0.37399903 0
7.6812773 0.1044357 -0.61935997 0
5.3012505 0.08698108 -0.71949673 0
11.08135 0.2213707 -0.4942461 0
6.7162709 0.15084499 -0.66446555 0
14.29146 0.38371751 -0.38417426 0
7.7462983 0.22516991 -0.62446356 0
5.3262367 0.17256849 -0.72457504 0
9.1713486 0.32919684 -0.57445621 0
5.9962473 0.23221827 -0.70458281 0
11.226432 0.47775716 -0.50443888 0
6.7362623 0.30185887 -0.66459215 0
29.517187 1.4426079 0.2810123 0
11.251446 0.57835037 -0.50950921 0
7.796298 0.42138693 -0.63461328 0
6.751245 0.37736362 -0.669649 0
6.0312099 0.35304409 -0.7146771 0
29.357327 1.8298784 0.28077057 0
9.2913551 0.60579634 -0.58964574 0
6.7662234 0.45786828 -0.67470348 0
6.0311809 0.42352271 -0.71472633 0
5.3761377 0.38910776 -0.73474514 0
29.177404 2.207144 0.28055924 0
33.477695 2.6140993 -0.49942234 0
15.201653 1.2225635 -0.42966506 0
9.3613195 0.77680236 -0.59474349 0
6.8011642 0.57867324 -0.67977822 0
5.4060769 0.47470221 -0.74479961 0
15.426651 1.4184039 -0.43974766 0
9.4012833 0.88743889 -0.59979844 0
6.8111191 0.65918785 -0.67982161 0
15.666635 1.5790571 -0.45480588 0
7.9261532 0.81884414 -0.64984167 0
5.4009881 0.57041728 -0.74485481 0
11.736349 1.2870718 -0.54486227 0
7.9361043 0.88930494 -0.65487278 0
7.9610925 0.90940845 -0.65488005 0
7.9860802 0.92951363 -0.65988719 0
9.4961586 1.1288602 -0.60989738 0
9.5061445 1.1489884 -0.61490452 0
6.8509693 0.84542274 -0.68990517 0
5.4158688 0.68120921 -0.74990654 0
16.786516 2.1811903 -0.50996304 0
8.0109768 1.0603274 -0.66493297 0
5.4208093 0.73156458 -0.74992621 0
9.5810156 1.3350366 -0.61995852 0
8.0309076 1.1357901 -0.66995454 0
6.1057839 0.88165367 -0.73494828 0
28.251944 4.1788163 0.27989775 0
12.136053 1.8248019 -0.58000076 0
8.0608149 1.2313694 -0.67497694 0
6.1106944 0.95213497 -0.73496747 0
28.131735 4.4755759 0.27986491 0
12.250934 1.9855912 -0.59002292 0
8.0957098 1.331954 -0.6799947 0
6.9056325 1.1524025 -0.70498848 0
6.1405759 1.037708 -0.7449851 0
