# .PCD v0.7 - Point Cloud Data file format
VERSION 0.7
FIELDS x y z intensity
SIZE 4 4 4 4
TYPE F F F F
COUNT 1 1 1 1
WIDTH 1388
HEIGHT 1
VIEWPOINT 0 0 0 1 0 0 0
POINTS 1388
DATA ascii
9.3308687 28.256844 -1.4171242 0
7.765203 23.860252 -0.56336701 0
7.6249022 23.782295 -1.1426787 0
7.5669155 23.981487 -0.56499708 0
-3.7197874 22.071613 -0.50613439 0
-5.9637151 32.91077 3.8178263 0
-4.2203031 22.34754 -1.0277333 0
-6.2823782 32.59584 4.5764351 0
-5.5347815 28.009157 0.63318592 0
-4.8066511 23.986212 -1.1313362 0
-5.2044024 25.424509 0.60248458 0
-4.5361791 21.858994 -2.0522792 0
-4.8947859 23.114794 0.023637146 0
-4.1665168 19.366934 -3.6791596 0
-4.6512265 21.263168 0.044638783 0
-4.8386626 21.85104 -2.0571926 0
-7.0396085 31.314573 6.7408681 0
-5.3067017 23.263613 -0.53309023 0
-5.0587082 21.9111 -2.0678794 0
-5.1124015 21.891859 -2.5977204 0
-4.7402444 20.099466 -2.8523977 0
-5.8940592 24.578569 0.0070305765 0
-5.2636552 21.72748 0.039362237 0
-5.8241305 23.596371 0.018176466 0
-5.1681004 20.673731 -2.9539211 0
-6.1980324 24.411366 0.59397531 0
-5.2250924 20.355682 -0.92515457 0
-5.19135 19.994902 -2.8512232 0
-5.5273333 21.018778 2.0775743 0
-5.4641232 20.536184 -0.44216368 0
-5.2914357 19.642485 -2.8022399 0
-5.154768 18.960287 -3.6445582 0
-7.5798273 27.518486 -0.026303053 0
-5.5741134 20.033537 -1.3965365 0
-5.3221145 18.919123 -3.6440802 0
-6.1146693 21.482645 2.127311 0
-6.0216508 20.989733 2.0879095 0
-6.205389 21.377842 -0.9967525 0
-5.8276176 19.89423 -1.8799987 0
-5.6618557 19.166153 -2.7467971 0
-6.2531018 21.018631 -1.4877046 0
-6.8703303 22.897985 -1.0890009 0
-6.3169861 20.839426 -3.0208223 0
-6.2066021 20.337418 -2.4400649 0
-6.3615851 20.680515 -2.9989877 0
-11.489206 36.961777 5.3021092 0
-6.8344831 21.747522 0.039151758 0
-6.4473686 20.337843 -1.4399757 0
-6.4603467 20.228094 -1.4337238 0
-6.721765 20.894041 -0.97623801 0
-6.6236439 20.451826 0.55388784 0
-6.9887862 21.452026 2.6777172 0
-11.710398 35.737488 6.0510921 0
-6.7360415 20.423899 -2.9760773 0
-6.4697571 19.458696 -2.8251486 0
-7.0141134 20.995266 -1.5024403 0
-6.4656777 19.217596 -0.40222701 0
-7.2766657 21.477125 0.56720865 0
-6.8172989 20.010307 2.0339553 0
-12.136168 35.425816 6.0295043 0
-6.61309 19.181953 -2.792057 0
-6.7348485 19.409286 -2.3446031 0
-7.3591719 21.082714 -1.5185138 0
-6.8103576 19.336109 -2.8238404 0
-7.3633471 20.703352 2.1010268 0
-7.4247599 20.744843 2.6205928 0
-7.5975637 21.074289 2.661839 0
-6.7721786 18.690647 -2.7265663 0
-6.9222193 18.98842 -2.299911 0
-6.6985068 18.244257 -2.6615069 0
-6.8927541 18.628525 -3.2009311 0
-7.8877382 21.14562 2.6809783 0
-7.4089026 19.712347 2.0271606 0
-6.9272275 18.209883 -3.6062632 0
-8.9666538 23.371307 1.190558 0
-7.850596 20.352976 2.0898702 0
-8.9233522 22.971685 2.9001853 0
-8.5232563 21.800171 2.2234254 0
-9.6249914 24.474947 3.0781417 0
-7.1710052 18.130098 -3.6054122 0
-8.3319244 20.899401 2.673629 0
-8.5244703 21.24424 2.7147083 0
-8.5131311 21.098648 2.7013724 0
-8.2673521 20.386454 -3.0460179 0
-7.7794552 19.0467 -2.830832 0
-8.3277378 20.272806 -2.5147295 0
-7.8988519 19.099142 -2.8464489 0
-7.519958 18.067392 -3.6197917 0
-8.2358742 19.675993 -2.9430158 0
-8.5484247 20.302393 -2.5251086 0
-8.6750565 20.459999 -2.5519376 0
-10.280546 24.106071 4.9470658 0
-8.7680807 20.447021 -2.0267568 0
-8.7313404 20.236109 -2.5294044 0
-8.7647285 20.191849 -2.0038803 0
-7.8646045 17.974541 -3.6288545 0
-8.0324106 18.218187 1.0087308 0
-9.0945206 20.519213 2.1476774 0
-11.505413 25.838696 3.9674211 0
-8.0225124 17.902794 -3.6280873 0
-11.222158 24.900232 3.8380263 0
-10.965683 24.194067 4.3710656 0
-10.104598 22.186775 5.2087245 0
-8.0089083 17.4891 -0.81323171 0
-9.3243198 20.268324 0.055268258 0
-9.0778723 19.637129 1.07251 0
-10.988395 23.69294 4.3017049 0
-8.3358936 17.849155 -3.6425745 0
-10.823207 23.057625 4.2038617 0
-9.4729643 20.076338 4.7725725 0
-8.5436583 18.015432 -0.84929836 0
-10.207455 21.474096 2.2616699 0
-8.4652109 17.716831 -3.6261196 0
-9.8158035 20.437965 -3.1420248 0
-9.8731766 20.484573 -1.0073826 0
-10.803477 22.306574 0.6070112 0
-8.6159096 17.724819 -3.6412592 0
-5.9809933 12.232876 -2.0987487 0
-9.8703804 20.084011 -3.0980766 0
-9.9207077 20.085026 -3.0980842 0
-9.5573854 19.276978 -0.93873668 0
-10.914108 21.918091 0.60635448 0
-10.010007 20.016516 2.6731048 0
-9.4728365 18.871908 4.5560865 0
-10.024861 19.871922 -0.9805727 0
-10.046712 19.842026 0.57489669 0
-10.600741 20.845377 2.2286019 0
-8.9823704 17.562103 -3.6445646 0
-9.0180006 17.547798 -3.6443951 0
-10.250542 19.861462 -2.5606341 0
-9.4775829 18.279297 -0.88253844 0
-10.171887 19.583481 2.637923 0
-10.216345 19.574223 3.6880858 0
-10.165954 19.377583 3.6603112 0
-9.1975269 17.416365 -3.632982 0
-12.186963 23.013811 6.8289471 0
-10.100282 18.977066 -0.43050662 0
-10.542671 19.726595 0.58104515 0
-10.734344 19.980858 1.1181663 0
-9.2788582 17.192984 -3.6005106 0
-11.270919 20.817305 -1.6116052 0
-10.853363 20.008184 2.1829076 0
-10.684777 19.618872 4.267293 0
-11.200771 20.482777 5.5775537 0
-10.321473 18.786072 -0.42844036 0
-10.64628 19.32209 2.6406858 0
-13.71005 24.78742 5.3334599 0
-9.8060684 17.621569 -2.2803946 0
-10.58002 18.934114 5.20506 0
-10.911335 19.407558 4.2545657 0
-9.8255625 17.395576 -1.3128017 0
-10.276275 18.143202 0.56384969 0
-13.150764 23.137371 3.1271789 0
-11.177131 19.573128 3.7627749 0
-10.664449 18.573942 -2.9463911 0
-12.039231 20.912897 0.047195375 0
-12.950193 22.420675 2.4452024 0
-10.544315 18.176655 2.5335355 0
-9.8791742 16.929424 -3.6127746 0
-12.437104 21.249773 5.2735004 0
-10.600653 18.025694 -0.8950839 0
-11.140923 18.871693 0.070351467 0
-13.431729 22.670687 2.4872375 0
-13.546614 22.780504 4.3761182 0
-11.607981 19.4011 2.1744275 0
-11.586349 19.260256 2.1609981 0
-12.951593 21.360075 -1.7082703 0
-12.981265 21.295177 -2.2875986 0
-10.407449 16.999704 -0.37352571 0
-13.102262 21.282423 -2.2925 0
-12.967175 20.963839 5.2814898 0
-13.176227 21.167854 -3.4663522 0
-12.652616 20.259802 5.1244726 0
-12.994819 20.724869 7.0492773 0
-11.808208 18.729059 0.07165131 0
-11.961864 18.892036 0.58981955 0
-10.348551 16.283066 -3.5457542 0
-11.098856 17.405777 -2.3334739 0
-10.859659 16.971054 4.8618674 0
-13.898505 21.597607 -2.3613367 0
-11.753653 18.203497 6.2828536 0
-13.065727 20.186497 3.4351699 0
-11.241827 17.30529 4.4679451 0
-11.731456 17.948441 -2.9398296 0
-13.209539 20.166218 6.9554143 0
-12.685069 19.316135 3.3100131 0
-11.15727 16.931581 4.8921676 0
-15.227919 22.978045 -3.207334 0
-11.327456 17.039877 5.4409404 0
-12.308485 18.40361 -1.4750414 0
-16.869141 25.137707 -0.001845479 0
-13.544817 20.125315 3.4656203 0
-12.449289 18.423264 4.2599216 0
-11.759118 17.354309 6.0872808 0
-14.723076 21.630304 0.64815748 0
-12.089322 17.728577 4.1228204 0
-12.579253 18.353779 -2.0046558 0
-13.711497 19.962351 1.1871977 0
-13.83337 20.029678 0.62133652 0
-11.231773 16.21328 2.4050746 0
-13.868061 19.94581 4.047523 0
-12.521996 17.903223 2.6307125 0
-12.142454 17.261133 -3.8974888 0
-12.83025 18.219202 5.352108 0
-13.577671 19.202745 0.61063766 0
-17.284578 24.404139 5.6362944 0
-11.818334 16.59293 -2.2897844 0
-17.236401 24.124527 -1.3758751 0
-12.863937 17.97448 3.1848011 0
-11.759433 16.3571 3.4082837 0
-12.262786 16.952553 -3.3540916 0
-12.185146 16.789772 -2.3371544 0
-12.130088 16.660822 -0.38555709 0
-14.65268 20.075251 2.3755553 0
-17.755489 24.262238 5.6676369 0
-12.190989 16.559528 -2.3146195 0
-12.992616 17.61413 5.8037586 0
-14.7929 19.96183 0.05657655 0
-14.866561 20.014606 4.1512375 0
-11.920589 16.00098 5.3171186 0
-12.107137 16.174238 -0.37016281 0
-18.061256 24.099081 4.2394156 0
-14.973715 19.906954 5.3472848 0
-13.101338 17.311836 -2.4584322 0
-18.294188 24.122152 0.71374619 0
-11.490088 15.082754 -3.4730265 0
-12.369643 16.182833 -2.7705948 0
-12.708266 16.576696 -0.87999082 0
-11.683106 15.196269 -3.5093901 0
-5.2210164 6.7623887 -0.59249282 0
-13.628293 17.672649 2.6876807 0
-12.683018 16.407738 5.0071845 0
-12.036479 15.514326 0.5622341 0
-13.15585 16.939486 4.646029 0
-13.740951 17.616592 0.08303152 0
-9.8026943 12.515794 -2.8637187 0
-5.209374 6.6269484 -0.58099687 0
-13.791759 17.541384 1.1239204 0
-5.2040286 6.5832863 -0.97554708 0
-13.759665 17.396782 -0.4295902 0
-13.049388 16.48597 4.0560317 0
-13.730873 17.247751 -2.4980979 0
-13.098935 16.438986 2.0565157 0
-13.771509 17.247236 4.7722659 0
-13.951151 17.415665 7.0354571 0
-13.338183 16.580153 1.0897617 0
-15.43361 19.136024 3.5205793 0
-16.3241 20.172937 5.5635891 0
-18.399357 22.626614 -1.3349781 0
-18.465229 22.602671 -1.3397605 0
-12.728944 15.54401 1.9815696 0
-12.341234 14.992353 -3.5575464 0
-18.424704 22.328545 -3.3618605 0
-12.866986 15.518705 -1.7785218 0
-12.047112 14.521795 2.323247 0
-9.4127617 11.291632 1.8703197 0
-9.3358431 11.149714 1.8569242 0
-12.203108 14.499359 -3.4620345 0
-14.128268 16.775734 5.8272963 0
-13.756026 16.267132 0.59290034 0
-12.290584 14.479766 -3.0118399 0
-17.091274 20.087208 -1.1762766 0
-11.763214 13.798759 2.2413392 0
-14.006453 16.38282 4.1565509 0
-19.589714 22.827696 -1.3829266 0
-14.221896 16.534325 2.129766 0
-12.4468 14.393327 -3.4760423 0
-14.007994 16.140989 -2.9111676 0
-16.236261 18.67852 0.069808662 0
-13.355291 15.332486 2.9635525 0
-12.778621 14.574199 -3.5432653 0
-13.236527 15.063045 -1.2937533 0
-15.087731 17.151625 2.7524517 0
-12.959055 14.651405 -3.1042104 0
-14.427548 16.30825 6.3322244 0
-19.594427 22.025524 -1.3441687 0
-10.936388 12.249537 0.52370518 0
-15.231704 17.013552 2.7538683 0
-15.562396 17.304207 -2.6399415 0
-13.7 15.203518 0.10950144 0
-10.060696 11.135584 2.2665796 0
-9.1163645 10.065376 3.3839059 0
-14.422132 15.858097 0.10183568 0
-14.728324 16.151665 2.1385672 0
-14.730114 16.076403 2.1343713 0
-15.772302 17.168356 3.3618479 0
-14.777128 16.015038 3.6801357 0
-13.316803 14.332738 -3.5760303 0
-19.451057 20.91275 6.1083746 0
-17.250128 18.445168 -1.6985291 0
-13.95508 14.892986 2.0177946 0
-9.6535473 10.261641 1.8113389 0
-14.427719 15.29037 3.5582538 0
-13.766271 14.489518 -3.1730645 0
-9.5609522 10.054147 4.1437092 0
-13.89035 14.535609 -0.34844235 0
-10.756819 11.21592 0.88005543 0
-9.9087887 10.296283 1.8357444 0
-9.9783478 10.327584 1.8403623 0
-13.889858 14.297057 -3.646101 0
-13.935488 14.277757 -3.6509361 0
-14.030055 14.309375 -3.6663599 0
-9.7139721 9.9031124 3.8001971 0
-13.321488 13.503867 -0.7568692 0
-15.20635 15.314801 -3.4481585 0
-11.913804 11.985677 4.1459184 0
-14.769393 14.785261 0.11316544 0
-11.672234 11.667028 6.1446996 0
-9.6620493 9.5932312 4.0735884 0
-17.968679 17.754875 -0.50654447 0
-11.507233 11.324166 0.90825224 0
-20.660904 20.308699 4.8040576 0
-10.551146 10.307403 1.8850832 0
-16.583202 16.095984 -0.43751249 0
-12.063324 11.659933 4.5342951 0
-15.366058 14.736046 -3.3920708 0
-21.806307 20.898811 6.4566383 0
-14.195863 13.485324 -3.567631 0
-10.895438 10.327451 2.9895151 0
-15.676285 14.771094 -3.4327199 0
-17.028376 15.980289 -3.1918762 0
-14.270221 13.316109 -3.5558949 0
-14.222526 13.215112 -3.5347695 0
-14.115988 13.058055 -3.4979956 0
-15.940799 14.619936 -3.4463897 0
-10.902214 9.9900599 7.1483846 0
-10.490839 9.5246544 3.8784897 0
-10.206668 9.2041664 5.1722646 0
-13.18415 11.820552 4.7764959 0
-13.13489 11.715512 4.3126168 0
-16.09038 14.241248 -3.4225407 0
-11.451489 10.112717 2.6763022 0
-11.025387 9.6479473 -0.51358116 0
-13.933523 12.097834 -3.3426912 0
-11.76836 10.192604 1.9850534 0
-11.434838 9.8603373 1.9339036 0
-9.4243002 8.0659151 0.18980864 0
-10.863153 9.2646027 3.9108095 0
-13.508407 11.424418 -3.1901321 0
-13.509604 11.374293 -3.1846089 0
-11.72462 9.8726988 7.8437433 0
-12.50165 10.445177 5.656724 0
-11.812427 9.7804117 -1.2659173 0
-11.878369 9.7994013 -0.91115892 0
-12.033694 9.8864031 2.7280006 0
-13.532749 11.033751 -3.1410944 0
-13.620443 11.105238 4.3134527 0
-11.743621 9.5083904 -1.237999 0
-11.376563 9.1691074 -0.84902585 0
-14.009905 11.296214 6.6911626 0
-11.37551 9.0942383 -0.16320333 0
-13.148058 10.526337 7.6402555 0
-13.490369 10.707147 -3.0926397 0
-12.192549 9.6720448 3.8550029 0
-11.792791 9.2855196 -1.585776 0
-11.868704 9.3046236 -1.2360494 0
-11.27482 8.8011398 -0.82009649 0
-8.9631376 6.9739089 0.20168158 0
-12.489202 9.7318964 7.6442699 0
-12.310809 9.5432959 3.8611815 0
-11.533607 8.8855124 -0.8412776 0
-11.635945 8.9404297 0.17810702 0
-11.992452 9.1747131 -2.6749465 0
-12.29389 9.4021044 3.8376622 0
-11.064529 8.4383564 4.5191827 0
-14.735339 11.19206 2.3111825 0
-12.189611 9.2035837 -1.9754539 0
-12.225133 9.1840563 -1.9803073 0
-9.9202204 7.4413362 0.19566526 0
-12.571726 9.4310284 3.131968 0
-14.223152 10.656702 6.152473 0
-11.38026 8.4990215 6.4932671 0
-12.224133 9.0614738 -1.6040242 0
-12.791091 9.5002298 6.3811784 0
-12.111754 8.934247 -1.5875804 0
-12.447593 9.2052927 6.6296549 0
-12.590864 9.2427959 -1.6563692 0
-12.192802 8.9822683 6.9022913 0
-13.354716 9.8058376 4.5022054 0
-9.6049852 7.0115247 0.47548857 0
-11.986348 8.7215452 -1.5552354 0
-9.2048473 6.7088242 4.9543133 0
-12.710952 9.2015676 -2.0361159 0
-12.405499 8.9522505 -0.53808331 0
-17.48098 12.632207 4.1928735 0
-33.821621 24.33844 -1.9533012 0
-9.7089815 6.9645028 1.3158777 0
-11.955435 8.5403748 -1.5383388 0
-9.85044 7.0205226 0.48005998 0
-12.56188 8.9282999 -1.9931231 0
-9.8709345 7.0007629 0.48022944 0
-12.648254 8.9724874 3.4715624 0
-11.493289 8.1119127 -0.13827223 0
-13.06473 9.185957 -2.8414795 0
-12.336132 8.6761513 4.1250324 0
-9.4481468 6.6400347 5.3347092 0
-11.799234 8.2137728 -2.5298879 0
-12.313148 8.5801144 4.10604 0
-11.407833 7.8995838 -0.13600668 0
-9.6406221 6.6567984 1.2990791 0
-12.081052 8.3064241 -1.531144 0
-12.484377 8.5981169 6.0907426 0
-17.369947 11.916736 3.6004117 0
-10.388476 7.0899568 -0.091415107 0
-13.252446 9.0687313 8.215066 0
-10.516332 7.1677547 4.4928374 0
-17.031479 11.57409 3.5243392 0
-10.641747 7.1943717 -0.10282207 0
-17.022781 11.513591 3.5199633 0
-13.44603 9.043848 -0.58041751 0
-16.912603 11.36852 2.5265088 0
-12.043784 8.0550776 -0.82851028 0
-9.7787256 6.5333672 1.3051345 0
-13.588588 9.0862894 5.2692347 0
-10.014192 6.6804328 5.5535188 0
-13.041834 8.6401567 -1.2808222 0
-13.648386 9.0568581 6.5595312 0
-11.519262 7.5749655 -2.0780256 0
-13.551816 8.929575 5.2358546 0
-10.836892 7.1401696 7.4728332 0
-36.276039 23.733305 -2.0304463 0
-17.016171 11.12613 3.488867 0
-9.7396097 6.3333979 0.20711213 0
-12.322591 7.9911532 -1.8833377 0
-10.511423 6.8379087 5.4312057 0
-13.903349 9.0198784 4.5093999 0
-9.6188402 6.2049341 0.74361348 0
-13.561086 8.723423 -1.3274111 0
-13.770142 8.8844328 7.4561338 0
-11.927872 7.6364841 -0.79914808 0
-12.130543 7.7470412 -2.5306509 0
-14.153236 9.0724001 6.2836275 0
-12.993928 8.2939472 3.4579082 0
-10.720601 6.803803 -0.094029218 0
-12.14806 7.6847486 -2.1750379 0
-14.392062 9.0936146 -0.62226248 0
-12.315845 7.7498207 -2.5559533 0
-14.351499 9.0540543 5.4634671 0
-14.255622 8.9627571 2.9394624 0
-12.347053 7.713212 -0.83053124 0
-12.179224 7.5871921 -2.5191336 0
-14.408982 9.007988 5.9088712 0
-13.264216 8.2603521 3.1278317 0
-14.382764 8.9354973 5.0245738 0
-14.753136 9.1369514 3.0219929 0
-14.579916 8.9809818 -0.62643397 0
-12.903113 7.9190507 -2.6735191 0
-13.383432 8.2011852 -0.91691792 0
-12.735998 7.7760611 -2.6318514 0
-12.019058 7.3189468 -1.1211474 0
-16.119043 9.8267097 2.3680744 0
-13.305111 8.0666342 -1.2704892 0
-9.6561308 5.8366022 0.47218919 0
-11.911318 7.209094 3.835331 0
-8.6200304 5.1923585 1.1601702 0
-12.249641 7.3836446 4.2931223 0
-13.482135 8.0998497 2.7691562 0
-12.383206 7.3897748 -1.1524061 0
-14.427027 8.6254368 2.5375266 0
-12.423466 7.4090495 3.9775853 0
-10.084863 5.9761 0.75516731 0
-12.623225 7.443152 -2.5733802 0
-12.817143 7.5745077 4.4553828 0
-11.024076 6.5151315 6.9937267 0
-12.0424 7.0306025 -2.0984008 0
-11.992346 6.9844694 -0.77278399 0
-18.081142 10.549753 3.5930316 0
-9.2893171 5.3867021 0.21715584 0
-17.532703 10.178506 3.487525 0
-11.640293 6.7199016 0.20041433 0
-12.87455 7.4016123 -2.6133609 0
-38.248264 21.989328 -2.0509174 0
-12.281964 7.0215282 -2.4737058 0
-11.543903 6.6112852 4.0117884 0
-12.155023 6.9553761 6.422606 0
-12.340158 7.0273528 3.556442 0
-12.433214 7.0287786 -0.46888337 0
-9.1307669 5.1416116 0.70983267 0
-17.54781 9.8682337 2.9905069 0
-14.893781 8.348629 4.2245145 0
-15.121184 8.4712181 7.4031477 0
-12.467532 6.92136 -1.4729631 0
-14.420551 8.0000772 0.95356107 0
-14.984701 8.3148775 4.2397041 0
-12.224265 6.729136 -0.45063892 0
-14.402442 7.9092484 0.94947922 0
-13.943741 7.6185904 -2.0471416 0
-12.374256 6.7414331 -0.4609994 0
-14.421983 7.8234749 0.18522541 0
-10.207265 5.5215011 1.569452 0
-11.728958 6.3399858 3.6891115 0
-10.82978 5.8168974 0.78553152 0
-14.110459 7.5506725 -2.0667462 0
-14.428386 7.7051058 -0.19364443 0
-14.628749 7.79561 2.1202822 0
-12.882277 6.8270721 -0.82268357 0
-12.085531 6.4248061 6.2878551 0
-12.284316 6.4542303 -2.4181986 0
-13.675226 7.167974 -1.247297 0
-14.52497 7.5831332 -0.57765782 0
-10.453571 5.442934 1.3147824 0
-14.704945 7.614666 -2.1433554 0
-14.610919 7.5442095 -0.58242953 0
-8.8247738 4.5486164 1.3860908 0
-14.309436 7.3247862 -2.4549301 0
-12.507337 6.4162111 4.9471474 0
-9.9354963 5.0624871 1.2592937 0
-14.480494 7.3401008 -2.0953338 0
-12.494767 6.348084 5.2978501 0
-12.359473 6.2193007 -2.4060621 0
-16.033083 8.0836143 4.8752518 0
-10.338818 5.1795559 1.2974892 0
-14.910758 7.4647532 3.7329979 0
-14.794773 7.3730969 4.5141091 0
-15.014594 7.4729128 6.7279224 0
-14.341521 7.1247845 8.687499 0
-15.013509 7.3988743 4.1534796 0
-15.092247 7.4042873 5.4283504 0
-9.9188051 4.8271146 0.73652667 0
-12.852859 6.2287283 -1.4719477 0
-14.972055 7.2774644 6.2398171 0
-14.288895 6.877439 -2.4156277 0
-14.863644 7.1848879 6.1908808 0
-14.577585 7.0297785 8.3029566 0
-13.012796 6.1934571 -1.8269157 0
-12.786383 6.0569468 -1.4502064 0
-14.017452 6.6102066 -1.2475554 0
-12.683367 5.9911475 5.6759238 0
-12.274859 5.7621975 4.783761 0
-10.0012 4.6436448 0.22308102 0
-12.622966 5.8313179 -2.4178467 0
-13.070794 6.0059614 -2.1602659 0
-14.440865 6.6060057 -2.0383031 0
-13.137722 6.0033007 3.624893 0
-12.094388 5.5122452 4.6964154 0
-12.142198 5.4991798 2.086369 0
-14.536551 6.5243168 -2.4227378 0
-13.751519 6.1772156 4.1471963 0
-45.181355 20.201677 1.1650512 0
-12.821253 5.6834545 -2.436816 0
-14.27299 6.304729 -1.625164 0
-15.019236 6.671061 7.9605279 0
-12.827703 5.6132455 -2.4311831 0
-15.064434 6.6039891 4.0908561 0
-14.990618 6.5372505 4.0666203 0
-16.252602 7.0691576 6.1695132 0
-12.444205 5.3573551 3.4221518 0
-21.034269 8.9571505 -3.0520899 0
-11.719568 4.9993339 4.8518586 0
-14.8914 6.3206072 2.8538187 0
-13.063004 5.5260797 3.919486 0
-4.5052018 1.8808258 0.37366423 0
-12.381555 5.1648078 -2.3161995 0
-15.103565 6.321115 5.3034749 0
-15.392326 6.3958297 1.7521404 0
-16.204929 6.6786709 -2.6922016 0
-13.145089 5.4266663 3.9302554 0
-4.5008922 1.8297018 0.25912395 0
-12.986561 5.2988138 1.8516731 0
-12.429535 5.0197864 -2.3149641 0
-13.335061 5.3920588 3.6151919 0
-4.4621592 1.779626 0.36965069 0
-12.736889 5.1031599 2.4689543 0
-15.069029 6.0332837 5.2611785 0
-4.4477429 1.7492589 0.36994615 0
-12.765456 5.036407 1.4944549 0
-16.96838 6.7017798 5.416522 0
-4.4382372 1.7239778 0.37019154 0
-11.90215 4.6354489 1.4097245 0
-15.647241 6.0475888 -2.5603755 0
-4.448051 1.7024964 0.15035132 0
-4.4339323 1.6887292 0.37051257 0
-12.127418 4.6185923 -2.2307403 0
-15.679453 5.9374752 -2.559443 0
-4.4580545 1.6709334 -0.074398577 0
-4.4547424 1.6646756 0.48069 0
-12.124331 4.5231051 -2.2198753 0
-4.4880619 1.6555406 -0.18933359 0
-4.4595547 1.6431155 0.26086208 0
-12.016293 4.4210906 -2.1937509 0
-4.4837728 1.6361541 -0.074143112 0
-4.4407158 1.6141983 0.48116004 0
-15.32152 5.5705528 -2.4754417 0
-4.4339519 1.5937057 -0.288681 0
-4.4604402 1.5979003 0.26125446 0
-14.916822 5.3900456 7.2573881 0
-15.684141 5.6077142 2.1487777 0
-4.4343467 1.5577958 -0.39837685 0
-14.46879 5.1092463 6.1957121 0
-18.746727 6.4915514 -2.6003211 0
-11.371325 3.8944693 -2.0427999 0
-14.254688 4.8529897 3.0482438 0
-14.770366 4.9905863 5.8811569 0
-12.567543 4.1930213 3.6874354 0
-14.824948 4.8698945 -2.3532383 0
-14.756691 4.7784252 -2.3372905 0
-16.297466 5.2625356 2.6106465 0
-14.679273 4.641593 -2.3209422 0
-15.139718 4.7564354 3.9723809 0
-16.501242 5.1325192 3.0463998 0
-17.603699 5.3188653 -2.3877156 0
-14.928666 4.4683204 3.5252883 0
-26.846071 7.8671494 -3.1135223 0
-14.901389 4.3167477 3.5116417 0
-16.909321 4.7408609 -2.2613325 0
-16.737318 4.5774875 -2.2295804 0
-10.556583 2.8226278 -1.8218751 0
-23.202991 6.0751448 -2.6207244 0
-16.483624 4.2319288 -2.1811423 0
-16.405464 4.1302743 -2.1651351 0
-22.362528 5.5400596 -2.5044637 0
-16.149324 3.9154155 -2.1228013 0
-9.7410355 2.303616 -1.6458354 0
-15.76428 3.6384277 -2.0546885 0
-21.135803 4.7882481 -2.3356261 0
-12.922132 2.8522522 -1.9421623 0
-20.497562 4.4019222 -2.251096 0
-12.735489 2.6635776 -1.9052262 0
-9.5624237 1.9492519 -1.592575 0
-19.576458 3.8908403 -2.1249499 0
-19.328861 3.7515044 -2.0932915 0
-12.341522 2.3211844 -1.8266244 0
-9.0925198 1.6612405 -1.4942571 0
-32.860424 5.8637767 -2.9497037 0
-18.493242 3.2064269 -1.9771166 0
-14.570112 2.4497101 -1.8475282 0
-8.9062672 1.4475088 -1.4471663 0
-32.20364 5.0844002 -2.8720913 0
-17.886339 2.7299845 -1.8920438 0
-31.245852 4.6530561 -2.7715905 0
-46.766415 6.788837 -2.0775051 0
-8.4608965 1.1799554 -1.3541174 0
-8.5213833 1.1506126 -1.3640294 0
-11.460583 1.5042589 -1.6533023 0
-11.391608 1.4429376 -1.6426831 0
-13.718084 1.6832303 -1.7047132 0
-16.82353 2.0005002 -1.7490621 0
-45.052155 5.2084632 -1.9715335 0
-16.610811 1.8616503 -1.722538 0
-44.727493 4.8764625 -1.9532785 0
-13.317846 1.3959103 -1.6416494 0
-28.045631 2.8411267 -2.4305856 0
-42.895683 4.2017064 -0.84405661 0
-10.76405 0.99672276 -1.5229371 0
-23.12294 2.0869734 -1.948863 0
-10.585428 0.91375136 -1.4919175 0
-15.92462 1.3186243 -1.6319537 0
-41.96666 3.3464074 -1.8006396 0
-10.29273 0.77391034 -1.4402347 0
-36.105701 2.6227062 -2.3471155 0
-10.173979 0.69682336 -1.4194082 0
-12.717174 0.81906593 -1.5410596 0
-20.516287 1.2498513 -1.6918408 0
-6.5946088 0.37009239 -0.97893655 0
-12.464629 0.66460884 -1.5043783 0
-19.640602 0.97577536 -1.6028858 0
-6.5508137 0.29408807 -0.96830559 0
-12.321939 0.51673341 -1.4830087 0
-35.144848 1.3805201 -2.2659578 0
-12.16832 0.42908475 -1.4570421 0
-19.151197 0.61147135 -1.5541884 0
-6.2928038 0.16988824 -0.9218601 0
-18.648409 0.46850741 -1.5020453 0
-9.1420088 0.19473596 -1.2435253 0
-18.350382 0.33845127 -1.4754618 0
-8.8430662 0.13027741 -1.1924011 0
-18.237225 0.21606484 -1.4593554 0
-8.624073 0.066924892 -1.156473 0
-34.362461 0.20132403 -2.2009194 0
-8.5399408 0.010444514 -1.1408991 0
-14.105538 -0.030310694 -1.3982803 0
-40.145069 -0.19442776 -1.6813208 0
-7.8214812 -0.079839289 -1.0186608 0
-13.89782 -0.18418264 -1.3717697 0
-5.7470245 -0.098947369 -0.81381845 0
-11.078278 -0.22501448 -1.3000948 0
-16.886375 -0.4019475 -1.3270948 0
-5.6680193 -0.16534387 -0.79821277 0
-10.87003 -0.34359184 -1.2688422 0
-5.618556 -0.20119959 -0.78787053 0
-16.619459 -0.61710137 -1.3000671 0
-5.5190454 -0.23270912 -0.76744342 0
-10.446922 -0.47017375 -1.2070599 0
-16.301805 -0.78269011 -1.273263 0
-6.7857423 -0.35550556 -0.84452212 0
-12.960512 -0.71562427 -1.2611523 0
-39.734928 -2.3151221 -1.6462785 0
-6.8168445 -0.43555367 -0.85409081 0
-12.602242 -0.83633435 -1.2145737 0
-39.315536 -2.7290239 -1.6276653 0
-6.2725101 -0.47311682 -0.76263654 0
-15.73777 -1.2133994 -1.2192394 0
-6.2230186 -0.50898731 -0.75230467 0
-12.224959 -1.0327959 -1.172495 0
-5.1723762 -0.46359 -0.70524144 0
-15.300114 -1.3856311 -1.1771826 0
-6.0739613 -0.5764091 -0.73156285 0
-38.563545 -3.7065613 -1.5848014 0
-11.957191 -1.1975373 -1.1408817 0
-5.1033549 -0.53491253 -0.69466281 0
-14.682455 -1.5603912 -1.1197301 0
-5.9251022 -0.65884733 -0.70574379 0
-19.606745 -2.2084842 -1.1267328 0
-7.7784228 -0.90932149 -0.82834864 0
-37.843693 -4.4922376 -1.5483685 0
-11.324731 -1.3874799 -1.0683315 0
-5.6909795 -0.72236389 -0.66985786 0
-37.522434 -4.7889013 -1.5358615 0
-10.840304 -1.429401 -1.0120176 0
-4.9602742 -0.67755693 -0.66852367 0
-18.480888 -2.5365517 -1.0472744 0
-7.3001285 -1.0365696 -0.7615571 0
-30.827158 -4.4316115 -1.2082242 0
-10.551971 -1.5591578 -0.97562981 0
-4.8660927 -0.73912138 -0.6479727 0
-13.504107 -2.080128 -1.0090523 0
-5.5029135 -0.87069917 -0.63860691 0
-58.712719 -9.3193903 0.20936945 0
-13.184958 -2.1500101 -0.97795773 0
-5.5436544 -0.93047398 -0.64836407 0
-31.092106 -5.2384205 -1.2241064 0
-9.5731421 -1.6532049 -0.86297452 0
-4.7523866 -0.84117037 -0.63217032 0
-47.666592 -8.4540415 -0.89662528 0
-16.867012 -3.0475848 -0.93581688 0
-12.581841 -2.3094201 -0.92575788 0
-9.5947866 -1.78873 -0.86726654 0
-4.7431946 -0.90661496 -0.63179946 0
-6.3826952 -1.2401928 -0.63845253 0
-47.235855 -9.2456093 -0.88621759 0
-12.17324 -2.4308381 -0.88921356 0
-5.21033 -1.0656476 -0.59692967 0
-15.759208 -3.2493794 -0.85732853 0
-6.0431042 -1.2749518 -0.5925554 0
-27.839285 -5.9090176 -1.0683522 0
-8.2295952 -1.7823663 -0.70941687 0
-4.564445 -1.0094799 -0.60088921 0
-11.670115 -2.5988388 -0.84224308 0
-5.1465931 -1.1720347 -0.58624303 0
-15.191767 -3.4838164 -0.81986701 0
-5.9444594 -1.3919212 -0.58174121 0
-25.474648 -6.0080891 -0.9578439 0
-7.6802344 -1.8452052 -0.64795125 0
-5.0121779 -1.2241052 -0.5707047 0
-4.435461 -1.0965914 -0.58018649 0
-4.4305768 -1.1067028 -0.5801264 0
-14.528376 -3.6440308 -0.77265072 0
-5.6550441 -1.4460654 -0.54087996 0
-20.700134 -5.3210616 -0.72658372 0
-7.3711247 -1.9298606 -0.61189187 0
-4.3461571 -1.1580412 -0.56470644 0
-10.030671 -2.6869485 -0.69341695 0
-4.8482637 -1.3217512 -0.54489446 0
-13.975219 -3.8329487 -0.74055552 0
-5.4959822 -1.5336562 -0.52013195 0
-18.292044 -5.1388054 -0.61262858 0
-9.751544 -2.7762878 -0.66741204 0
-4.7839146 -1.3829232 -0.53947461 0
-18.038025 -5.2430153 -0.60159755 0
-9.6120405 -2.8285148 -0.65687931 0
-4.7543554 -1.423486 -0.53422499 0
-13.095968 -3.9407842 -0.67826879 0
-6.4161215 -1.9579147 -0.50487411 0
-4.7498417 -1.4687593 -0.53400421 0
-27.388451 -8.4737444 -0.39409396 0
-12.610774 -3.9475582 -0.64728832 0
-6.3316302 -2.0093148 -0.49446979 0
-4.1580582 -1.3363307 -0.53850806 0
-8.9523993 -2.8928983 -0.59529185 0
-4.5550699 -1.4964366 -0.50351334 0
-12.326885 -4.072217 -0.63114595 0
-5.2081699 -1.7485538 -0.48857185 0
-15.727193 -5.3007398 -0.49681184 0
-6.0018725 -2.0489545 -0.45867041 0
-4.068768 -1.4078138 -0.52802527 0
-8.5229311 -2.9691463 -0.55912888 0
-4.470861 -1.5779448 -0.49799624 0
-11.69725 -4.1513739 -0.58959198 0
-5.03371 -1.8111799 -0.467976 0
-4.0795264 -1.4830354 -0.53771639 0
-14.752187 -5.3747611 -0.44964054 0
-7.7763863 -2.8636987 -0.49323919 0
-4.9389729 -1.8425624 -0.45766994 0
-35.820377 -13.376045 0.27804708 0
-10.911378 -4.1219697 -0.53328562 0
-5.7632608 -2.2029006 -0.43755761 0
-4.3719268 -1.6897246 -0.48733953 0
-10.746697 -4.1694865 -0.52277935 0
-5.7236147 -2.243654 -0.43731436 0
-4.3572526 -1.7250915 -0.48716757 0
-24.412865 -9.6832256 -0.32782605 0
-10.516904 -4.212873 -0.50718379 0
-5.583672 -2.2605813 -0.42200282 0
-4.3226185 -1.7657166 -0.48194203 0
-21.843426 -8.9498749 -0.26648381 0
-10.055973 -4.1588597 -0.47661462 0
-5.4990044 -2.301867 -0.41168699 0
-4.257864 -1.796687 -0.4767085 0
-19.594948 -8.2874022 -0.21042109 0
-9.7707777 -4.1677771 -0.45609 0
-5.3891001 -2.3234303 -0.40141878 0
-4.5901413 -1.9928291 -0.42145792 0
-4.2082524 -1.8425177 -0.47144535 0
-18.391594 -8.0679064 -0.17929342 0
-9.6164608 -4.260345 -0.45044515 0
-6.6664877 -2.9741254 -0.39586148 0
-4.5606766 -2.0534601 -0.41617063 0
-4.163631 -1.8882829 -0.46619686 0
-3.7867317 -1.7327954 -0.50121582 0
-12.086053 -5.5374575 -0.33427522 0
-6.4412785 -2.9771175 -0.37548956 0
-4.4507589 -2.0749776 -0.40591756 0
-3.7520258 -1.768362 -0.49602786 0
-11.921558 -5.6201682 -0.32867667 0
-6.3063145 -2.9990139 -0.36519375 0
-4.4261823 -2.1255076 -0.40568706 0
-3.6820986 -1.7842997 -0.4858667 0
-11.359913 -5.5122299 -0.30321547 0
-6.332212 -3.0991457 -0.36984661 0
-4.391542 -2.171145 -0.40546396 0
-3.6573734 -1.8197632 -0.4857032 0
-11.014318 -5.4968333 -0.28774032 0
-6.2524924 -3.1454394 -0.36955288 0
-4.3467917 -2.2068689 -0.40026996 0
-3.6226511 -1.8553132 -0.48052493 0
-10.789316 -5.5350695 -0.27725336 0
-6.0974092 -3.1574886 -0.35427925 0
-4.2568264 -2.2230635 -0.39008406 0
-3.5778134 -1.8809685 -0.47537449 0
-10.478775 -5.5241866 -0.26183495 0
-6.0830059 -3.2330313 -0.35398403 0
-4.7955594 -2.5672169 -0.34959576 0
-4.1970901 -2.2639809 -0.38485792 0
-3.8349717 -2.0831795 -0.43000802 0
-3.5029843 -1.9119945 -0.46516868 0
-31.633669 -17.262436 0.30118728 0
-14.17833 -7.789391 -0.083773464 0
-10.048392 -5.560132 -0.24608675 0
-7.8299565 -4.3597116 -0.33734414 0
-6.0090003 -3.3696012 -0.35339376 0
-4.7262783 -2.6685276 -0.34914848 0
-4.0672913 -2.310782 -0.36952963 0
-3.775497 -2.1592216 -0.42967495 0
-21.412041 -12.317073 0.29755738 0
-13.723713 -7.9413285 -0.07759437 0
-9.5526037 -5.5667672 -0.22539058 0
-7.5852423 -4.4483347 -0.32670739 0
-5.8946333 -3.476577 -0.35287961 0
-4.5965586 -2.7304189 -0.3387787 0
-4.0128732 -2.3968036 -0.36917993 0
-3.6858025 -2.2155254 -0.4193854 0
-18.820112 -11.392751 0.29776451 0
-13.585926 -8.2697964 -0.07626757 0
-10.44044 -6.3939638 -0.27868727 0
-7.3202443 -4.5120735 -0.31116197 0
-5.7601438 -3.5736873 -0.34239218 0
-4.5422707 -2.8365183 -0.33837005 0
-3.9534283 -2.4828606 -0.36883619 0
-3.6363332 -2.2964211 -0.4190754 0
-3.339417 -2.1247201 -0.45928749 0
-17.384737 -11.060548 0.29844356 0
-14.016894 -8.9673624 -0.089447439 0
-9.9445162 -6.4005046 -0.25806364 0
-6.9242606 -4.4820476 -0.28579786 0
-5.550056 -3.616538 -0.33201703 0
-4.3520479 -2.8539453 -0.32310906 0
-3.8083637 -2.5097222 -0.35360232 0
-3.5012989 -2.323123 -0.40385416 0
-3.2948976 -2.2004976 -0.4590154 0
-16.990946 -11.35221 0.29986942 0
-12.982859 -8.7149267 -0.069071174 0
-9.4734793 -6.3966498 -0.24254575 0
-7.4545097 -5.0677562 -0.33952764 0
-5.3247662 -3.6394382 -0.3117117 0
-4.1466236 -2.8514485 -0.30291322 0
-3.8042102 -2.6302052 -0.36324039 0
-3.381305 -2.3546307 -0.38864866 0
-3.3763227 -2.3597143 -0.38863239 0
-3.3713908 -2.3697972 -0.38859686 0
-3.3664081 -2.3748801 -0.38858077 0
-3.3614757 -2.3849628 -0.38854554 0
-3.3564925 -2.3900456 -0.38852969 0
-3.3566101 -2.405077 -0.38848361 0
-3.3516183 -2.4101787 -0.39346799 0
-3.3567345 -2.4251599 -0.39343044 0
-3.3517497 -2.430243 -0.3934153 0
-3.3518653 -2.4452744 -0.39337 0
-3.3519304 -2.4553063 -0.3933439 0
-3.3419459 -2.4604383 -0.39332083 0
-3.3470521 -2.4754388 -0.39828405 0
-3.3421166 -2.4855204 -0.39825037 0
-3.3421805 -2.4955521 -0.39822486 0
-3.3422439 -2.5055838 -0.39819947 0
-3.3423567 -2.5206149 -0.398155 0
-3.6195612 -2.7377276 -0.34777877 0
-4.1133456 -3.1177945 -0.31712714 0
-4.854085 -3.6954341 -0.28111836 0
-6.8038454 -5.1964889 -0.30852214 0
-8.2249289 -6.3072367 -0.19157815 0
-10.840177 -8.341156 -0.018032432 0
-15.602078 -12.048676 0.30344018 0
-26.713366 -20.712757 1.1035931 0
-29.209429 -22.740406 2.0472403 0
-3.2874696 -2.5818086 -0.49794731 0
-3.348146 -2.6409352 -0.41283205 0
-3.4591506 -2.7345948 -0.33266637 0
-4.0690112 -3.2336719 -0.31676397 0
-4.7091427 -3.7573655 -0.27081993 0
-4.6739435 -3.7427595 -0.27083609 0
-6.437799 -5.1758828 -0.28325871 0
-7.7986803 -6.2874799 -0.17126006 0
-10.218034 -8.2687769 -0.0076817274 0
-14.537604 -11.806417 0.30370873 0
-22.380636 -18.244158 0.98535788 0
-28.677429 -23.475502 2.0548971 0
-3.2278385 -2.6627142 -0.49769387 0
-3.3741846 -2.7961123 -0.43244031 0
-3.3742402 -2.8061438 -0.43241701 0
-3.3743908 -2.826175 -0.43235764 0
-3.3744383 -2.8362248 -0.43733457 0
-3.3744929 -2.8462565 -0.43731174 0
-3.3745944 -2.8612878 -0.43727097 0
-3.379688 -2.8762898 -0.44223806 0
-3.384835 -2.8962746 -0.44218764 0
-3.4354527 -2.95049 -0.34708098 0
-3.6977582 -3.1878276 -0.28163239 0
-5.0588646 -4.3753014 -0.33441219 0
-5.9362488 -5.1518812 -0.25795254 0
-5.9111252 -5.1471896 -0.25795379 0
-5.8810568 -5.1475258 -0.25292978 0
-5.8610272 -5.1527853 -0.25290331 0
-5.8259044 -5.1481848 -0.25288978 0
-5.8058815 -5.1534252 -0.24786368 0
-5.765666 -5.1388693 -0.24787816 0
-5.7406363 -5.1441722 -0.24784479 0
-6.9257641 -6.2229333 -0.14079461 0
-8.9329309 -8.0539789 0.017697275 0
-12.569056 -11.374664 0.30403829 0
-12.473559 -11.340724 0.30401361 0
-12.383064 -11.306734 0.30398142 0
-18.445452 -16.9044 0.89471805 0
-27.650539 -25.431492 2.0810909 0
-2.9576399 -2.7458661 -0.47234151 0
-2.9677763 -2.7658165 -0.47730055 0
-2.9476993 -2.7610075 -0.47230217 0
-2.9326224 -2.7561524 -0.46731123 0
-2.9175382 -2.7513144 -0.46732029 0
-2.9025071 -2.7514582 -0.46231213 0
-2.897558 -2.761528 -0.46228454 0
-2.8825192 -2.7616885 -0.46227649 0
-3.2053456 -3.0737348 -0.44167838 0
-3.5434611 -3.4155862 -0.40100184 0
-3.5284119 -3.4157562 -0.40099636 0
-3.5133626 -3.415926 -0.40099099 0
-3.5033653 -3.4210331 -0.39597604 0
-3.4883609 -3.4262018 -0.39595386 0
-3.4783561 -3.4313254 -0.39593908 0
-3.4683065 -3.4314487 -0.39594135 0
-3.8922286 -3.8675647 -0.35007706 0
-4.3666086 -4.3531795 -0.28411958 0
-5.1185021 -5.1213365 -0.21260136 0
-6.1227555 -6.1521873 -0.11055723 0
-7.7728224 -7.8322062 0.042759538 0
-7.7276149 -7.8227096 0.042756796 0
-10.740274 -10.915483 0.30388993 0
-16.069237 -16.382097 0.84971821 0
-15.232733 -15.598066 1.3281982 0
-2.9998918 -3.1059661 -0.42154536 0
-3.3027833 -3.4332168 -0.38089177 0
-3.7217526 -3.8844666 -0.33998951 0
-4.1760902 -4.37534 -0.27400824 0
-4.8726325 -5.1191101 -0.20252791 0
-5.8014002 -6.1157942 -0.10053819 0
-7.3005691 -7.7274117 0.052687943 0
-10.041429 -10.673051 0.30358824 0
-15.089016 -16.088039 0.82441819 0
-14.676168 -15.710213 1.313679 0
-2.8896327 -3.1271443 -0.41148576 0
-3.1572626 -3.4297302 -0.36587867 0
-3.535996 -3.8613749 -0.32000414 0
-4.0004544 -4.3772678 -0.26397541 0
-4.6618781 -5.1214495 -0.19247651 0
-5.5000267 -6.0640368 -0.085579515 0
-6.8834167 -7.6169119 0.057547644 0
-9.3674421 -10.40519 0.30316636 0
-14.017487 -15.629443 0.79869854 0
-14.265892 -15.975904 1.3144143 0
-2.7793653 -3.1482894 -0.40143475 0
-3.0419888 -3.4559603 -0.35581717 0
-3.3904846 -3.8679197 -0.30998358 0
-3.834945 -4.3940549 -0.25391707 0
-4.4409633 -5.1037908 -0.17748517 0
-5.2237883 -6.0269923 -0.075615644 0
-6.501472 -7.5259714 0.0674164 0
-8.7134237 -10.121942 0.30267251 0
-12.985869 -15.140148 0.77783811 0
-14.062415 -16.464718 1.3255287 0
-2.6740499 -3.1643586 -0.39141378 0
-2.9165828 -3.4672384 -0.34579816 0
-2.9116147 -3.4773049 -0.34577855 0
-3.2349143 -3.8745332 -0.29997763 0
-3.669364 -4.4108291 -0.24389121 0
-3.6543396 -4.4159904 -0.24387804 0
-3.6392744 -4.4161515 -0.2438806 0
-3.6242151 -4.416296 -0.23888317 0
-3.6091907 -4.4214563 -0.23887035 0
-3.5891252 -4.4216566 -0.23886654 0
-3.5740187 -4.4168153 -0.23888478 0
-4.1247549 -5.1171818 -0.16746253 0
-4.1147585 -5.1273084 -0.16744444 0
-4.7666378 -5.9667797 -0.060734302 0
-4.741467 -5.9570384 -0.060761482 0
-4.7163363 -5.9522963 -0.060773432 0
-4.691206 -5.9475532 -0.060785443 0
-4.6761966 -5.9577289 -0.060765088 0
-4.6561127 -5.9579291 -0.055768698 0
-4.6259427 -5.9482241 -0.055789471 0
-4.6058526 -5.9484377 -0.055793196 0
-4.5756435 -5.9337316 -0.055829257 0
-4.5555935 -5.9389443 -0.055818141 0
-4.5304227 -5.9291968 -0.055846274 0
-4.5053391 -5.9294329 -0.050843954 0
-4.4902492 -5.9296041 -0.050854564 0
-4.4701986 -5.934814 -0.050843954 0
-4.4450698 -5.9300628 -0.050856829 0
-4.4149013 -5.9203506 -0.050878227 0
-4.3998117 -5.9205189 -0.050889134 0
-4.3696828 -5.9158049 -0.05089584 0
-4.3545995 -5.9159575 -0.045906931 0
-4.3294706 -5.9112024 -0.045920134 0
-4.3093815 -5.9114075 -0.045925051 0
-4.2892528 -5.9066124 -0.045944691 0
-4.2590847 -5.8968954 -0.045967042 0
-4.244072 -5.9070592 -0.04594934 0
-4.2239442 -5.9022627 -0.045969158 0
-4.2038546 -5.9024644 -0.045974523 0
-5.0988569 -7.1902771 0.09163937 0
-6.4691043 -9.1542912 0.30062047 0
-6.4288869 -9.1446838 0.30059618 0
-6.3835554 -9.1201124 0.30053508 0
-6.3483386 -9.1104631 0.30050454 0
-6.3081217 -9.100853 0.3004801 0
-6.2627921 -9.0762777 0.30041888 0
-8.7862682 -12.786317 0.66793913 0
-27.710779 -40.437141 4.9389982 0
-2.4099212 -3.5621567 -0.31578937 0
-3.0117524 -4.4573698 -0.20898801 0
-3.4114213 -5.0741997 -0.1327422 0
-3.9223654 -5.8601565 -0.036156684 0
-3.9073136 -5.8653121 -0.036155254 0
-4.6813202 -7.0592289 0.10125498 0
-5.9307833 -8.9794817 0.30013028 0
-5.8955708 -8.9698191 0.30009916 0
-8.1516991 -12.447289 0.65211296 0
-11.809224 -18.098627 1.3285081 0
-2.2995062 -3.583133 -0.3058252 0
-2.532294 -3.9613223 -0.26007047 0
-2.8510695 -4.4738641 -0.20404845 0
-3.2104001 -5.0610662 -0.12787259 0
-3.6861258 -5.8373666 -0.026317358 0
-4.3945889 -6.9869132 0.10598522 0
-7.5874619 -12.112444 0.63629037 0
-32.5914 -52.123371 7.5666909 0
-2.4569991 -3.9769905 -0.25509825 0
-3.1199856 -5.0668912 -0.12291893 0
-4.2688742 -6.9630733 0.10588032 0
-7.3053265 -11.950004 0.63086748 0
-2.1739533 -3.5942082 -0.30090019 0
-2.4017754 -3.9874783 -0.25512126 0
-3.0395727 -5.0626006 -0.11797941 0
-4.153161 -6.9391432 0.10576145 0
-25.680832 -43.003868 5.0428462 0
-2.6501143 -4.4806366 -0.19417727 0
-4.0726357 -6.9098406 0.11066271 0
-9.028594 -15.367363 1.1425202 0
-2.0885904 -3.6099186 -0.29595241 0
-2.3012853 -3.9933281 -0.25020012 0
-2.5748181 -4.496295 -0.19420469 0
-2.878675 -5.0439949 -0.11313111 0
-3.288924 -5.7909284 -0.016658694 0
-3.8865085 -6.8715024 0.11047053 0
-4.7930398 -8.5148077 0.29871464 0
-6.4034286 -11.422987 0.60945499 0
-25.236925 -45.166985 5.1962042 0
-2.2108514 -3.9990664 -0.24527213 0
-2.4692512 -4.4921727 -0.18930575 0
-3.1682458 -5.7819734 -0.011774212 0
-3.7255042 -6.832891 0.11528544 0
-4.5613685 -8.4067965 0.29837167 0
-7.6614399 -14.173935 1.0597038 0
-1.9328874 -3.6311471 -0.28607246 0
-2.1103201 -3.9898372 -0.23537543 0
-2.6574719 -5.0358629 -0.10834014 0
-3.5745668 -6.8041911 0.11511147 0
-4.3498521 -8.3185987 0.29805771 0
-5.6116195 -10.78954 0.58287203 0
-7.0356774 -13.589059 1.0233124 0
-1.8525274 -3.6417615 -0.28613558 0
-2.0249135 -4.0005088 -0.23544785 0
-2.2631202 -4.4838157 -0.17952418 0
-2.5217595 -5.0319486 -0.10346732 0
-3.3833678 -6.7657814 0.11987746 0
-4.098134 -8.2357149 0.2977092 0
-5.2690883 -10.637449 0.57734108 0
-6.56705 -13.333041 1.0025392 0
-1.7721249 -3.6523473 -0.28121915 0
-2.1626029 -4.4845762 -0.17461976 0
-2.7558753 -5.7403536 -0.0022097528 0
-3.9017651 -8.1572952 0.29743004 0
-6.234314 -13.100745 0.9819293 0
-1.7219335 -3.6627026 -0.28124616 0
-2.1023192 -4.490016 -0.16966835 0
-2.670361 -5.7260151 -0.0023094714 0
-3.7708731 -8.1133394 0.29724923 0
-6.0177484 -13.012539 0.97661459 0
-1.8339243 -4.0068941 -0.22564521 0
-2.6100285 -5.7264838 -0.0023694634 0
-3.6701722 -8.0791349 0.29710308 0
-5.8566151 -12.958876 0.97139156 0
-1.6365069 -3.6682804 -0.27633557 0
-1.9967742 -4.4957871 -0.16977164 0
-2.5346184 -5.7270474 0.0025540292 0
-3.5493889 -8.0500793 0.29694712 0
-5.5538116 -12.671181 0.95069683 0
-1.7435429 -4.0275145 -0.2207112 0
-2.4692221 -5.7175312 0.0024726093 0
-3.4386327 -8.0059109 0.29678598 0
-18.429541 -42.998798 4.7278438 0
-1.703284 -4.0227876 -0.22077432 0
-2.104377 -5.0000439 -0.088943332 0
-2.7795691 -6.635448 0.12911974 0
-4.1045327 -9.8414774 0.54512668 0
-18.150393 -43.671814 4.7786112 0
-1.6530298 -4.0281224 -0.22082838 0
-2.0491688 -5.0254416 -0.088970631 0
-2.6838996 -6.6061459 0.12896749 0
-3.9382234 -9.7477121 0.54481983 0
-9.6613808 -24.018593 2.7414231 0
-1.5977484 -4.0284681 -0.21589079 0
-1.9786605 -5.0009112 -0.084098577 0
-2.5933263 -6.5917993 0.12884398 0
-3.781986 -9.6638718 0.53952801 0
-1.5524607 -4.018754 -0.21596253 0
-2.1874638 -5.6745243 0.0070863664 0
-4.6869698 -12.202855 0.91413999 0
-1.8982286 -5.0014501 -0.084189385 0
-4.6063638 -12.163453 0.9090029 0
-1.8679997 -4.9866352 -0.079250515 0
-8.5451612 -22.821981 2.5985312 0
-4.5739603 -12.263302 3.4041314 0
-2.4272268 -6.552948 0.13359219 0
-4.6245599 -12.494366 2.8145235 0
-4.5901599 -12.472523 3.7844455 0
-4.435123 -12.109737 0.90372849 0
-3.454469 -9.5062323 0.53393221 0
-2.0415845 -5.6655002 0.011887074 0
-4.3242564 -12.055546 0.89852428 0
-1.5743334 -4.4735441 -0.15033484 0
-1.9812267 -5.6608934 0.011805713 0
-2.7034159 -7.7612133 0.29559353 0
-4.1479454 -11.986816 0.8932215 0
-1.6868551 -4.9627762 -0.074532151 0
-2.2006943 -6.5044684 0.13322707 0
-3.1471162 -9.3683701 0.52836251 0
-6.4493413 -19.291491 2.2111619 0
-1.3261584 -4.0200815 -0.20629483 0
-1.6265818 -4.9781442 -0.074588507 0
-2.1151626 -6.4950204 0.13310304 0
-3.0109985 -9.2942934 0.52307791 0
-5.9940457 -18.614601 2.1396666 0
-1.2708504 -4.015377 -0.20137513 0
-1.5661663 -4.968504 -0.074699253 0
-2.0245521 -6.4705772 0.1379503 0
-2.8749204 -9.2251854 0.52280319 0
-5.711647 -18.44161 2.1140733 0
-1.2255645 -4.0156207 -0.20145568 0
-1.5057853 -4.9638443 -0.069800198 0
-1.9389426 -6.4461031 0.13779315 0
-2.7438779 -9.1610403 0.51753587 0
-5.3170671 -17.864244 2.0527692 0
-1.1753067 -4.020884 -0.20152244 0
-1.4403739 -4.9542127 -0.069907963 0
-1.8634437 -6.4415631 0.13766643 0
-2.6128473 -9.0968647 0.51726806 0
-5.0701342 -17.76095 2.0373008 0
-1.1300204 -4.0211139 -0.20160544 0
-1.3800154 -4.9545445 -0.07000196 0
-1.7778649 -6.4220643 0.13751675 0
-2.4919081 -9.0476179 0.51702285 0
-4.7618666 -17.402981 1.996389 0
-1.0847658 -4.0263267 -0.1966792 0
-1.3145584 -4.9348841 -0.065131187 0
-1.6973165 -6.407526 0.13737214 0
-2.3658683 -8.9783859 0.51174301 0
-4.4739151 -17.094852 1.9605694 0
-1.1467643 -4.4608893 -0.1410197 0
-1.631862 -6.3928928 0.13725001 0
-2.9592831 -11.6448 0.86114001 0
-1.009333 -4.0316839 -0.19680399 0
-1.3822672 -5.5643816 0.025772452 0
-2.2046769 -8.9293423 0.51142997 0
-6.4090104 -26.117773 3.4653549 0
-1.1887488 -4.9305263 -0.065359712 0
-1.7917625 -7.4718561 0.2938832 0
-3.7700169 -15.864204 1.8279171 0
-1.04108 -4.451386 -0.13622153 0
-1.4757299 -6.3537269 0.14193325 0
-2.6313777 -11.416759 0.84533775 0
-0.90866441 -4.0121274 -0.1920079 0
-1.2463084 -5.5350747 0.025498629 0
-1.9728988 -8.8406639 0.50594807 0
-5.4573669 -24.598761 3.2619338 0
-1.073061 -4.9360805 -0.065554231 0
-1.6003159 -7.4028878 0.29347986 0
-3.2797871 -15.297172 1.7664076 0
-0.93541759 -4.4468603 -0.13641879 0
-1.319604 -6.3145232 0.14161293 0
-2.3185506 -11.188536 0.83453584 0
-0.81814319 -4.022501 -0.19216815 0
-1.1103866 -5.5107183 0.030230641 0
-1.7460282 -8.7268906 0.50041682 0
-4.5504227 -22.919241 3.0483243 0
-0.95723259 -4.9115911 -0.060807973 0
-1.4139367 -7.3438373 0.29308867 0
-2.8300641 -14.799785 1.7100312 0
-0.83475989 -4.4422703 -0.13162458 0
-1.1685129 -6.2802496 0.14129427 0
-2.0259945 -11.005133 0.81880629 0
-0.72245824 -3.9978623 -0.18739119 0
-0.98451608 -5.4962831 0.029969245 0
-1.5293378 -8.6429939 0.49993294 0
-3.8522799 -21.938334 2.9159064 0
-0.83641183 -4.8870912 -0.056060553 0
-1.2375761 -7.2846851 0.2926881 0
-2.4773035 -14.69175 1.6942796 0
-0.72910005 -4.4376812 -0.13183087 0
-1.017459 -6.2509212 0.14598088 0
-1.7435219 -10.826585 0.8080852 0
-0.69888693 -4.4327917 -0.13190046 0
-1.1368409 -7.2651458 0.29247028 0
-3.2139311 -20.771914 2.7683387 0
-0.828444 -5.4719329 0.029640943 0
-1.6123295 -10.742234 0.80272865 0
-0.64857173 -4.4329615 -0.12700397 0
-0.90161407 -6.2264104 0.14572179 0
-1.5265574 -10.67764 0.80249655 0
-0.55645967 -4.0034218 -0.18272042 0
-0.75294662 -5.4672179 0.03448464 0
-1.1563185 -8.4847479 0.49403417 0
-2.6875758 -19.984753 2.666393 0
-0.94537789 -7.2009711 0.29202542 0
-2.0073521 -15.397404 2.8543229 0
-0.51119703 -4.0085597 -0.18280905 0
-0.78577733 -6.2018719 0.14546148 0
-1.3147154 -10.548629 0.79194319 0
-0.48600483 -4.0036311 -0.182877 0
-0.65224725 -5.4525871 0.034261376 0
-0.9950313 -8.4204483 0.48864257 0
-2.2367859 -19.207083 2.5695827 0
-0.54945421 -4.85812 -0.051694781 0
-0.7942332 -7.1565771 0.29166979 0
-1.6271964 -14.86101 1.6979567 0
-0.46734583 -4.4135404 -0.12741521 0
-0.63974434 -6.1724153 0.14513551 0
-1.0623651 -10.364736 0.78121352 0
-0.39543587 -4.0038791 -0.1830751 0
-0.52635187 -5.4280152 0.03396906 0
-0.79847318 -8.3462391 0.4881584 0
-1.6887745 -17.984816 2.4170077 0
-0.43873128 -4.8534603 -0.051936448 0
-0.62801307 -7.1171947 0.29128504 0
-1.5574176 -17.855433 2.39659 0
-0.455917 -5.4382329 0.033825234 0
-0.84046328 -10.24064 0.77562141 0
-0.34654966 -4.4038639 -0.12269154 0
-0.54744864 -7.1074748 0.291105 0
-1.5621568 -20.463657 3.6798704 0
-0.32640374 -4.3989148 -0.12274292 0
-0.74463046 -10.186016 0.7703588 0
-0.30627769 -4.3989649 -0.12278718 0
-0.48695093 -7.0876751 0.29094002 0
-1.2160461 -18.131876 2.4262681 0
-0.3450906 -5.4085488 0.038543463 0
-0.62869096 -10.141445 0.77006149 0
-0.25590372 -4.3840837 -0.12292045 0
-0.40636823 -7.0729337 0.29074973 0
-1.0415037 -18.607531 2.4815147 0
-0.28464037 -5.3937111 0.038388208 0
-0.51266402 -10.071864 0.76473057 0
-0.21064603 -4.3991761 -0.12301502 0
-0.32571504 -7.0381799 0.29053169 0
-0.86272341 -19.303143 2.5620348 0
-0.22421138 -5.3838644 0.03823936 0
-0.39674002 -10.027258 0.7644335 0
-0.1602927 -4.3892803 -0.12314305 0
-0.24517553 -7.0334139 0.29035351 0
-0.64072496 -19.164015 2.5464101 0
-0.16378182 -5.3740082 0.038088724 0
-0.28576937 -9.9676237 0.75911498 0
-0.69435507 -25.43046 5.10952 0
-0.1386255 -5.3740668 0.038034409 0
-0.2403989 -9.9477654 0.75899351 0
-0.089799121 -4.3744135 -0.12332368 0
-0.13432391 -6.9987144 0.29006436 0
-0.34354976 -19.130108 2.5407448 0
-0.078199342 -5.3641982 0.037883118 0
-0.1294896 -9.9031067 0.75369364 0
-0.044469748 -4.3694749 -0.11844966 0
-0.058752816 -6.983902 0.28986713 0
-0.13155134 -18.980871 2.5201032 0
-0.017773051 -5.3543196 0.037730217 0
-0.018593062 -9.8584242 0.75339496 0
0.0059118392 -4.3495541 -0.11859193 0
0.022959681 -8.0688725 0.47605231 0
0.11248945 -26.799791 4.0794311 0
0.045324396 -6.0143089 0.14841107 0
0.1341446 -15.052726 1.7045982 0
0.059710886 -4.7895536 -0.048166126 0
0.11362866 -8.0490932 0.47582328 0
0.44289947 -28.760574 4.3562021 0
0.11083294 -5.994432 0.14822753 0
0.29554379 -14.978211 1.6941365 0
0.14097583 -6.0044918 0.14817807 0
0.36614507 -14.933414 1.693938 0
0.13524498 -4.7746592 -0.048366666 0
0.23461105 -8.0043583 0.4754793 0
0.91334385 -29.566938 4.4762001 0
0.2064925 -5.9796009 0.14799054 0
0.52751982 -14.853863 1.6834861 0
0.20385364 -5.3046703 0.042132333 0
0.38974962 -9.6844511 0.74226338 0
0.18714665 -4.3297539 -0.11906493 0
0.30907297 -6.8646607 0.28887665 0
0.86182839 -18.50894 2.4674067 0
0.29715583 -5.9547353 0.14775492 0
0.75935584 -14.749457 1.677896 0
0.26116264 -4.7347884 -0.04370901 0
0.446228 -7.924768 0.47492656 0
1.6564006 -28.659222 4.3485937 0
0.41484156 -6.8348284 0.28860795 0
1.7725174 -28.56954 4.338233 0
0.44506326 -6.824873 0.28852984 0
1.8936996 -28.459871 4.3228498 0
0.41299614 -5.9248786 0.14745173 0
1.0466447 -14.630125 1.6671476 0
0.35171974 -4.7448506 -0.04392156 0
0.59740114 -7.8700051 0.47451684 0
2.2060807 -28.36067 4.3120971 0
0.47843802 -5.9149485 0.147291 0
1.1980109 -14.525446 1.6566888 0
0.45054406 -5.2549272 0.041511506 0
1.2634741 -14.510576 1.6565365 0
0.47571796 -5.2449484 0.041447192 0
1.3240095 -14.470695 1.6513555 0
0.49589276 -5.2349544 0.041379869 0
1.3895026 -14.445819 1.6511909 0
0.52103776 -5.2349734 0.041325703 0
1.4500338 -14.405931 1.6460103 0
0.5411827 -5.2349768 0.041269034 0
1.510533 -14.376034 1.64584 0
0.63456398 -5.8650708 0.15187354 0
3.033613 -27.747581 4.2346196 0
0.87443203 -7.7803583 0.46879718 0
0.54302835 -4.6949325 -0.044424891 0
1.6618034 -14.291286 1.6354054 0
0.62176913 -5.2050066 0.041044638 0
1.7222608 -14.276377 1.6352483 0
0.64690167 -5.2100177 0.040993661 0
1.7827785 -14.236463 1.6350688 0
0.66708481 -5.1950145 0.040921912 0
1.8482442 -14.216564 1.6299105 0
0.69220293 -5.2050223 0.040875852 0
1.9037578 -14.176632 1.6297292 0
0.63881189 -4.6399035 -0.039737403 0
1.28696 -9.2458191 0.72475374 0
0.66386622 -4.6699147 -0.044759601 0
1.1062133 -7.6855307 0.46814376 0
5.8577976 -40.356438 7.0196776 0
0.62505049 -4.2548242 -0.1152125 0
1.1414455 -7.680553 0.46805799 0
4.0724621 -27.144444 4.1666436 0
1.0192524 -6.6453476 0.28699172 0
4.1834564 -27.064608 4.156302 0
1.0444633 -6.635345 0.28690982 0
4.2943482 -27.024761 4.1509962 0
1.0746619 -6.630352 0.28683415 0
4.4102235 -26.989916 4.1506968 0
1.104883 -6.6153579 0.28674996 0
