# .PCD v0.7 - Point Cloud Data file format
VERSION 0.7
FIELDS x y z intensity
SIZE 4 4 4 4
TYPE F F F F
COUNT 1 1 1 1
WIDTH 1413
HEIGHT 1
VIEWPOINT 0 0 0 1 0 0 0
POINTS 1413
DATA ascii
-4.5788651 -13.876459 1.7902582 0
-1.7158316 -5.2624478 0.083035678 0
-3.936533 -12.119075 1.3009553 0
-1.3639703 -4.2504821 -0.082362503 0
-2.1963801 -6.8821869 0.35559714 0
-6.1060901 -19.20116 2.842145 0
-1.8725992 -5.9695954 0.20383206 0
-1.3186074 -4.246851 -0.081823409 0
-4.2074718 -13.56213 1.7527847 0
-1.6100485 -5.2557149 0.089292303 0
-3.8502131 -12.617521 1.3367101 0
-1.2728493 -4.2282782 -0.076115787 0
-2.0547988 -6.8564806 0.35746393 0
-5.4442244 -18.249016 2.7046564 0
-1.5495631 -5.2525439 0.090009913 0
-3.69348 -12.592235 1.3337625 0
-1.2278693 -4.2396364 -0.075731844 0
-1.9687738 -6.8390765 0.35861716 0
-5.06534 -17.684118 2.6198876 0
-1.4839355 -5.2445145 0.090825692 0
-3.5034459 -12.457755 1.3223232 0
-1.1777447 -4.2461386 -0.07524842 0
-2.2319608 -8.0843935 0.56757009 0
-1.1574892 -4.2417412 -0.074976206 0
-2.1861715 -8.0657616 0.56827563 0
-1.1375258 -4.2473378 -0.07481727 0
-2.1456251 -8.0569201 0.56382358 0
-1.117417 -4.2479358 -0.074602395 0
-2.1046889 -8.0331383 0.56453907 0
-1.0971617 -4.243535 -0.074331313 0
-2.0643387 -8.0293455 0.56502736 0
-1.077199 -4.2491283 -0.074173659 0
-2.0238423 -8.0205517 0.56557143 0
-1.307703 -5.2397733 0.092828467 0
-4.2532792 -17.107124 2.5301301 0
-1.4480549 -5.9023252 0.20929104 0
-4.1790509 -17.149426 2.5355115 0
-1.4179032 -5.9032192 0.20961049 0
-4.0923486 -17.111889 2.5268872 0
-1.3926057 -5.8989673 0.20994075 0
-4.0573611 -17.293312 2.5503776 0
-1.3623101 -5.8948603 0.21031494 0
-4.0521879 -17.634144 2.5918465 0
-1.3321601 -5.8957491 0.21063229 0
-4.0417075 -17.965126 2.6334772 0
-1.3070078 -5.8964906 0.21090493 0
-4.0135121 -18.206478 2.6662586 0
-1.2762774 -5.8773866 0.211446 0
-3.9391999 -18.248705 2.6666462 0
-1.2512689 -5.8831229 0.21166196 0
-3.8359873 -18.161554 2.6537156 0
-1.2208294 -5.874011 0.21208945 0
-3.7447534 -18.139185 2.6499624 0
-1.1955328 -5.8697495 0.21241614 0
-3.6878841 -18.261089 2.6643162 0
-1.3366437 -6.7277589 0.36180508 0
-4.8939304 -24.732237 4.7078032 0
-0.91371149 -4.6750388 0.0081051886 0
-2.2915516 -11.792583 1.2528737 0
-0.89387953 -4.6856174 0.0082070231 0
-2.2355289 -11.769217 1.2537438 0
-0.87361395 -4.6812019 0.0084764957 0
-2.1796012 -11.750792 1.2495588 0
-0.85349125 -4.6817832 0.0086900592 0
-2.118439 -11.722568 1.250526 0
-0.83336997 -4.6823635 0.0089029372 0
-2.0623727 -11.69914 1.2463939 0
-0.80824852 -4.6830873 0.009161979 0
-2.0064418 -11.680705 1.242215 0
-0.78812307 -4.6836658 0.0093786716 0
-2.9979742 -17.905432 2.6107311 0
-1.098419 -6.6695991 0.36003792 0
-4.2706714 -26.161747 4.3097687 0
-1.0686715 -6.685462 0.36019519 0
-4.26161 -26.883575 4.4172807 0
-1.0382046 -6.6763349 0.36063081 0
-4.1585517 -26.976715 4.4274673 0
-1.0077401 -6.6672068 0.36106503 0
-3.9883342 -26.665916 4.3776369 0
-1.6957366 -11.554488 1.2320065 0
-0.74246514 -5.1812449 0.10462831 0
-2.0076063 -14.077753 1.7720178 0
-0.72232568 -5.1818175 0.10484765 0
-1.9418036 -14.064641 1.7728854 0
-0.69733071 -5.1875296 0.1050548 0
-1.8758131 -14.046474 1.7688079 0
-0.8659423 -6.6362467 0.36294347 0
-0.5434683 -4.2395997 -0.063267112 0
-0.97950786 -7.7557058 0.55990589 0
-0.52340019 -4.2402205 -0.058059007 0
-0.93868905 -7.736805 0.5555445 0
-0.55089182 -4.6604009 0.012201011 0
-1.6472745 -13.977871 1.7620587 0
-0.59099466 -5.1655259 0.10644235 0
-1.5814308 -13.964686 1.7579192 0
-0.56585729 -5.1662331 0.10670233 0
-1.8886801 -17.331018 2.5291216 0
-0.69869089 -6.5959644 0.36519146 0
-0.43812662 -4.2525558 -0.062277228 0
-1.1561936 -11.34954 1.2151151 0
-0.51008397 -5.1527891 0.1074512 0
-1.3524842 -13.881036 1.7513109 0
-0.54382724 -5.7833548 0.22042885 0
-2.349015 -25.189304 4.1413522 0
-0.69068593 -7.6887822 0.55874759 0
-3.5706317 -40.117363 7.3956609 0
-0.40463746 -4.6495357 0.018885493 0
-1.1940662 -13.800363 1.7438987 0
-0.4293187 -5.1450348 0.10839872 0
-1.4115729 -17.199173 2.5107386 0
-0.51678526 -6.5710454 0.36741155 0
-0.32178202 -4.2308278 -0.055811137 0
-0.84104335 -11.243251 1.2096603 0
-0.36883271 -5.1417093 0.10907362 0
-1.7649164 -24.844904 4.0863767 0
-0.51820272 -7.6435194 0.55608779 0
-2.6818976 -40.202374 7.4045043 0
-0.30387041 -4.6473136 0.019984066 0
-0.87852263 -13.683932 1.7285523 0
-0.35167864 -5.7536721 0.22280297 0
-1.4788134 -24.702572 4.0659857 0
-0.43198907 -7.6208973 0.55724996 0
-2.2347922 -40.234917 7.4140263 0
-0.2532773 -4.6386957 0.020611495 0
-0.90353131 -17.042971 2.4878957 0
-0.38125959 -7.6072903 0.55793703 0
-1.9747344 -40.297215 7.4212065 0
-0.21823096 -4.6446571 0.020909756 0
-0.62841821 -13.565664 1.7174939 0
-0.25063854 -5.741437 0.22400594 0
-1.0349607 -24.504436 4.0378852 0
-0.29519111 -7.5896468 0.55903685 0
-1.5267384 -40.299622 7.4260259 0
-0.16777901 -4.6410255 0.021478593 0
-0.47578827 -13.509796 1.7147189 0
-0.18469568 -5.7232289 0.22488981 0
-0.52187103 -16.903236 2.473475 0
-0.18261573 -6.5051541 0.36666757 0
-0.10547316 -4.2367177 -0.05360797 0
-0.2605229 -11.013938 1.1933072 0
-0.1062659 -5.1138635 0.11213453 0
-0.32883188 -16.843395 2.4661608 0
-0.10676073 -6.492208 0.36759546 0
-0.37531224 -24.156794 3.9886236 0
-0.091975622 -7.5251012 0.55686307 0
-0.45620948 -40.36409 7.4418526 0
-0.046888553 -4.6392794 0.022758782 0
-0.11412393 -13.36441 1.7000999 0
-0.033075858 -5.7023153 0.2266973 0
-0.06937883 -16.750317 2.4599037 0
-0.0076450524 -5.6929941 0.22705963 0
0.00033264444 -24.051764 3.9737256 0
0.024566401 -7.4982314 0.55836737 0
0.204786 -46.621876 8.5629139 0
0.024242818 -4.6161685 0.023737669 0
0.09412048 -13.299969 1.6979759 0
0.057600066 -5.6997418 0.22766083 0
0.2639862 -23.988762 3.967186 0
0.10576221 -7.4753971 0.55945617 0
0.71170771 -46.3349 8.516324 0
0.079965957 -4.6026473 0.024444073 0
0.24143952 -13.25386 1.6950066 0
0.13596897 -6.4537001 0.37052873 0
0.096613929 -4.2120824 -0.051266044 0
0.18686102 -7.4574966 0.55548728 0
0.11658905 -4.2176113 -0.051123202 0
0.22206312 -7.4584336 0.55583805 0
0.13734844 -4.1932039 -0.045658946 0
0.25254032 -7.449235 0.55625308 0
0.156679 -4.2236667 -0.050784379 0
0.28801495 -7.4401731 0.55670917 0
0.17271292 -4.1891241 -0.045256108 0
0.31862855 -7.4259729 0.55717629 0
0.1932371 -4.1746573 -0.044900686 0
0.50254375 -10.739068 1.1792074 0
0.23103628 -4.6016083 0.025992781 0
0.55310524 -10.730404 1.1798141 0
0.25129715 -4.5971341 0.026243895 0
0.59881008 -10.7166 1.1804329 0
0.27142265 -4.5976558 0.026441574 0
0.64937043 -10.707931 1.1810374 0
0.29168355 -4.5931792 0.026691914 0
0.69479662 -10.704118 1.1815463 0
0.31167105 -4.5986972 0.026835263 0
0.74053842 -10.690256 1.1771613 0
0.33193174 -4.5942178 0.027084798 0
0.7862367 -10.676443 1.1777749 0
0.35205591 -4.5947356 0.027280718 0
0.83652341 -10.677758 1.1782691 0
0.37245241 -4.5852566 0.027582556 0
0.882496 -10.653944 1.1789876 0
0.39244166 -4.5907698 0.027724892 0
0.92819214 -10.640123 1.1795979 0
0.41283762 -4.5812888 0.028025776 0
0.97375166 -10.631298 1.1801541 0
0.43296146 -4.5818019 0.028220117 0
1.0203034 -10.587434 1.1760805 0
0.45308533 -4.5823145 0.02841413 0
1.0655898 -10.588599 1.1765286 0
0.47307348 -4.5878234 0.028554797 0
1.3537657 -12.912592 1.6750445 0
0.60802341 -5.6390543 0.2338721 0
2.575701 -23.604176 3.9551578 0
0.82377303 -7.3640485 0.56293809 0
0.52365541 -4.5791006 0.029143363 0
1.4955893 -12.881222 1.6768013 0
0.6005249 -5.0422921 0.12004815 0
1.5517482 -12.852648 1.677662 0
0.62525547 -5.0579247 0.12012661 0
1.6073664 -12.844063 1.6783105 0
0.64579749 -5.0434341 0.12047994 0
2.1129844 -16.312082 2.4420133 0
0.74426854 -5.6274948 0.2353375 0
2.1883833 -16.314058 2.4477439 0
0.77442044 -5.6282616 0.23561844 0
2.2591002 -16.305849 2.4485395 0
0.79484338 -5.6187615 0.2359221 0
3.3545861 -23.473993 3.9593565 0
0.92435753 -6.3439989 0.37960961 0
3.460315 -23.471725 3.9654348 0
1.1016755 -7.3260622 0.56607735 0
0.69538087 -4.5583892 0.031029403 0
1.9678005 -12.738038 1.6730022 0
0.88064384 -5.6108966 0.23684049 0
3.7271299 -23.468521 3.9731157 0
1.1825725 -7.3130779 0.56700253 0
0.75068772 -4.5597668 0.031542033 0
2.1140211 -12.726761 1.6795541 0
0.94628978 -5.6025276 0.23755741 0
3.9985027 -23.480463 3.9856684 0
1.2634681 -7.3000827 0.56792355 0
0.80139685 -4.5460091 0.032168344 0
2.2555506 -12.705283 1.6811632 0
1.0116681 -5.6041455 0.23816678 0
4.2734609 -23.54258 4.0077281 0
1.3444952 -7.2820787 0.56889242 0
0.85183811 -4.5422406 0.032687679 0
1.9494324 -10.305615 1.1732217 0
0.87209553 -4.5377316 0.032926202 0
1.9947159 -10.30673 1.1736515 0
0.89221829 -4.5382209 0.033111975 0
2.0405254 -10.287851 1.1742872 0
1.0041809 -5.0072789 0.12430449 0
2.563777 -12.662886 1.6846023 0
1.029448 -5.0028973 0.12458494 0
3.3366213 -16.112629 2.4561291 0
1.1780529 -5.5932102 0.23986135 0
5.0361471 -23.787281 4.0725894 0
1.5609107 -7.2823834 0.57096028 0
11.026397 -51.029606 9.681488 0
0.98343337 -4.5154166 0.034202635 0
2.7653379 -12.652874 1.6916459 0
1.2384347 -5.5946636 0.24042052 0
5.3348732 -23.895 4.1043501 0
1.6418028 -7.2693362 0.57186282 0
11.6198 -51.039455 9.7121258 0
1.0336094 -4.5216193 0.034609765 0
3.7092576 -16.101852 2.4698181 0
1.6970961 -7.2706847 0.57236493 0
1.1757269 -4.9914126 0.12607545 0
3.8202677 -16.089598 2.4760022 0
1.5142004 -6.3084536 0.38561481 0
1.0049208 -4.1297688 -0.041614234 0
2.4955149 -10.213934 1.1843984 0
1.1146274 -4.50354 0.035544977 0
2.5463183 -10.195159 1.1850628 0
13.513862 -53.842678 11.631231 0
1.2563328 -4.9883332 0.12685403 0
3.1906736 -12.558133 1.6966603 0
1.2815982 -4.9839373 0.12712911 0
3.2462773 -12.549459 1.6972746 0
1.3067342 -4.9845371 0.1273526 0
3.3021462 -12.530787 1.6979909 0
1.3270011 -4.9800072 0.12758714 0
3.3576181 -12.527105 1.6985515 0
1.3521354 -4.9806051 0.12780948 0
3.4134815 -12.508428 1.6992645 0
1.3772713 -4.9812012 0.12803163 0
3.4692173 -12.494742 1.6999259 0
1.3975378 -4.9766674 0.12826484 0
3.5248182 -12.486054 1.7005342 0
1.4179343 -4.9671345 0.12854868 0
3.585547 -12.472496 1.7012316 0
1.4429383 -4.9727254 0.12871817 0
3.6408463 -12.473848 1.706735 0
1.4633342 -4.9631906 0.12900102 0
3.7014444 -12.465281 1.707379 0
1.4932069 -4.973907 0.12915798 0
3.7616115 -12.471755 1.7128683 0
1.5136037 -4.9643688 0.12944008 0
3.8219545 -12.473176 1.7134092 0
1.5338687 -4.9598284 0.12967052 0
3.8822515 -12.474646 1.7189474 0
1.5590031 -4.9604144 0.12988913 0
3.9428556 -12.466063 1.7195923 0
1.5794017 -4.9508719 0.13017325 0
4.0033345 -12.462472 1.7201891 0
1.6045399 -4.9514542 0.13039435 0
4.058816 -12.458749 1.7207457 0
1.629678 -4.952035 0.13061501 0
4.1289926 -12.465456 1.7263163 0
1.6549464 -4.9476161 0.13088605 0
4.1893072 -12.466902 1.7318593 0
1.675215 -4.9430666 0.13111743 0
4.2497859 -12.463297 1.7324513 0
1.7004817 -4.9386454 0.13138713 0
4.3101363 -12.464687 1.7329917 0
1.7207497 -4.9340935 0.13161752 0
4.3753166 -12.471251 1.7385188 0
1.7458875 -4.9346676 0.13183574 0
4.4357944 -12.467637 1.7391071 0
1.7710249 -4.9352403 0.13205343 0
4.5012317 -12.464198 1.7447326 0
2.0101528 -5.5276771 0.248153 0
5.9713211 -16.32682 2.6135337 0
2.0356913 -5.5132456 0.24852428 0
6.061482 -16.338961 2.6192234 0
2.0608463 -5.5138068 0.24874431 0
6.1416469 -16.35084 2.624835 0
2.0862565 -5.5043702 0.24906416 0
6.2365127 -16.373144 2.6354597 0
2.1115389 -5.4999313 0.24933325 0
6.321805 -16.380142 2.6411569 0
2.1464357 -5.5107393 0.24952839 0
6.416419 -16.412432 2.6516788 0
2.1718466 -5.501298 0.24984665 0
6.5068436 -16.414547 2.6574626 0
2.1972558 -5.4918556 0.250164 0
10.457389 -26.058762 4.7195678 0
2.897197 -7.1736341 0.59929579 0
14.930465 -36.768887 7.5104432 0
1.7963945 -4.4140382 0.037554294 0
5.1234331 -12.513689 1.7798095 0
2.2627683 -5.4882994 0.25077426 0
10.864581 -26.233755 4.7764239 0
2.9880788 -7.1606574 0.60022032 0
15.177943 -36.212872 7.4383106 0
1.8519562 -4.4052615 0.038119927 0
6.9856558 -16.55092 2.7003353 0
3.0436342 -7.1518903 0.60079068 0
15.44564 -36.168968 7.4561343 0
1.8823094 -4.4008656 0.033425733 0
5.3894691 -12.529815 1.7969931 0
2.3738892 -5.4707465 0.25190866 0
7.2395978 -16.636974 2.7267008 0
2.3990436 -5.4712896 0.25212219 0
7.3442259 -16.669462 2.7372868 0
2.4243233 -5.4668336 0.25238472 0
11.949128 -26.800455 4.9352527 0
1.637517 -3.6577399 -0.11123294 0
3.2050016 -7.1354814 0.60735244 0
15.327896 -33.999126 7.0920811 0
1.9737469 -4.3678193 0.034533113 0
5.681478 -12.516376 1.8096745 0
2.2257116 -4.8652024 0.13170494 0
12.467148 -27.138357 5.0213623 0
1.6829002 -3.653712 -0.11081144 0
3.3006284 -7.1325817 0.60819983 0
1.8543859 -3.9787297 -0.042602599 0
4.7028875 -10.06006 1.2608989 0
2.2863035 -4.856504 0.13230345 0
7.9864955 -16.884684 2.8056917 0
2.9320076 -6.1557546 0.40981913 0
1.9049145 -3.9698083 -0.042093366 0
4.8434272 -10.068203 1.2670188 0
2.3468938 -4.8477969 0.13289863 0
8.2504416 -16.970896 2.837101 0
3.0078166 -6.1423697 0.41059229 0
1.9504839 -3.960706 -0.046623886 0
4.9792218 -10.066203 1.2731935 0
2.412483 -4.8392057 0.13352814 0
8.5438986 -17.07781 2.868531 0
3.088496 -6.1340981 0.41134936 0
2.0011346 -3.9467728 -0.046071261 0
5.1152625 -10.054191 1.2794591 0
2.4731956 -4.8254828 0.13416553 0
9.5047503 -18.498466 3.5925531 0
1.8600845 -3.6123753 -0.11394209 0
5.2055202 -10.061211 1.2851453 0
2.5085235 -4.8212185 0.13449977 0
9.0355339 -17.284409 2.9256296 0
3.224308 -6.132009 0.41249692 0
2.0819502 -3.9334607 -0.045281023 0
5.3559017 -10.074575 1.2962677 0
2.5741096 -4.812604 0.1351202 0
9.3387413 -17.401506 2.962013 0
3.3003569 -6.1085892 0.41335186 0
2.1229694 -3.9042671 -0.044664532 0
5.5064425 -10.082874 1.3024322 0
2.6396925 -4.8039808 0.13573691 0
9.6475821 -17.493689 2.9986677 0
3.3860304 -6.1004004 0.41413054 0
2.1782436 -3.9054263 -0.044231296 0
5.6472383 -10.080907 1.3086135 0
2.7053142 -4.7953005 0.13135064 0
9.9707022 -17.616182 3.0351331 0
4.0452976 -7.1087027 0.62963676 0
2.7407625 -4.7860193 0.1317261 0
10.586741 -18.437305 3.6821728 0
2.0572932 -3.571394 -0.11696303 0
4.1105947 -7.1100912 0.63015109 0
10.377004 -17.905745 4.0906806 0
2.4936934 -4.2937107 0.034524441 0
7.453433 -12.766395 1.9470699 0
3.1559334 -5.3723521 0.25936252 0
10.652012 -18.087469 3.6411376 0
2.102911 -3.5573118 -0.11646813 0
4.2114234 -7.0972395 0.63608754 0
10.648219 -17.906717 4.1178842 0
2.5542393 -4.2849579 0.035088107 0
7.673233 -12.811285 1.9634147 0
3.2315545 -5.3639126 0.26004624 0
10.928227 -18.088541 3.6683705 0
2.148406 -3.5482209 -0.11602414 0
4.3170404 -7.0944476 0.63695908 0
10.914675 -17.897539 4.1451335 0
2.6099434 -4.2710299 0.030660212 0
7.9026284 -12.871433 1.9846792 0
3.3072951 -5.3504648 0.26077381 0
11.194967 -18.069294 3.6907089 0
2.198935 -3.5391991 -0.12054595 0
4.4322524 -7.1069255 0.64275426 0
11.190605 -17.908604 4.1772504 0
2.6753623 -4.2673817 0.031205684 0
8.1322813 -12.921549 2.0060322 0
3.3780372 -5.3368845 0.26146093 0
11.442361 -18.024481 3.7081287 0
2.244549 -3.5250969 -0.12005943 0
4.5477114 -7.1093888 0.64864039 0
3.0436409 -4.7371955 0.13458505 0
11.978093 -18.568163 3.3020957 0
3.9299765 -6.0567183 0.4238863 0
2.506592 -3.8469846 -0.051098049 0
6.6690917 -10.188185 1.375777 0
3.1093354 -4.7235084 0.13522375 0
8.6305876 -13.062687 2.0536201 0
3.1443446 -4.7292452 0.13543849 0
12.611588 -18.898003 3.3939323 0
4.0656509 -6.0545573 0.42995971 0
2.572696 -3.8182499 -0.05032143 0
6.9434838 -10.254213 1.3972917 0
3.2149169 -4.7206621 0.1360606 0
8.9846687 -13.150553 2.0905523 0
3.2452056 -4.7162285 0.13133255 0
7.0933771 -10.282453 1.4081877 0
2.9182212 -4.2071309 0.028641045 0
9.1990814 -13.205259 2.1066952 0
3.2909522 -4.697093 0.13186081 0
7.2532706 -10.310914 1.4191509 0
2.693625 -3.8056309 -0.054291427 0
5.05018 -7.1047878 0.66257495 0
2.7139714 -3.7960191 -0.054049581 0
5.0953784 -7.1056986 0.6629113 0
2.7148008 -3.765934 -0.053762615 0
4.3724461 -6.0408044 0.43743443 0
14.867456 -20.456934 3.756608 0
3.4220207 -4.6796961 0.13301003 0
5.2109561 -7.1030712 0.66881311 0
3.4624553 -4.6704788 0.13339785 0
7.7378192 -10.401354 1.4569994 0
2.5783296 -3.4465101 -0.12681556 0
3.9626286 -5.2686162 0.26656583 0
10.185013 -13.497117 2.2114866 0
2.8652923 -3.7739303 -0.057724267 0
4.0079694 -5.2644877 0.26694191 0
7.9827442 -10.441547 1.4734718 0
2.6440098 -3.4327407 -0.1312089 0
4.0633073 -5.2605929 0.2673873 0
10.538893 -13.589806 2.2432876 0
3.6237659 -4.6486297 0.134793 0
8.2026424 -10.476242 1.4897935 0
2.9416642 -3.7353215 -0.056811988 0
4.1537924 -5.2573824 0.2680831 0
10.857445 -13.686819 2.2797682 0
2.9769762 -3.7309511 -0.061516523 0
5.6978397 -7.1080265 0.68739665 0
14.189068 -17.676802 4.4926271 0
3.3271477 -4.1300426 0.027380496 0
8.5220566 -10.543075 1.5165462 0
3.3475001 -4.1204042 0.027615517 0
8.6070757 -10.554847 1.5220654 0
3.37765 -4.1209517 0.022827595 0
5.8630395 -7.1263938 0.6934393 0
3.067981 -3.7076666 -0.060650319 0
5.9182363 -7.1274962 0.6938315 0
3.0932024 -3.7031496 -0.060429215 0
5.0459228 -6.0192456 0.44761145 0
15.239387 -18.125471 4.121222 0
2.579066 -3.0645809 -0.19333827 0
3.8913784 -4.5937138 0.13223375 0
12.004357 -14.13729 2.4090738 0
3.9265051 -4.5944037 0.13247862 0
12.163344 -14.195775 2.4246981 0
3.961632 -4.5950913 0.13272284 0
12.341942 -14.269758 2.4453208 0
3.986995 -4.585547 0.13298906 0
12.520545 -14.343733 2.4659417 0
3.5746803 -4.0746589 0.024649978 0
6.2892947 -7.1400075 0.71139562 0
2.9529064 -3.338356 -0.13815477 0
4.6319757 -5.2116613 0.27194455 0
12.957311 -14.518387 2.517508 0
3.6502321 -4.066061 0.020258009 0
6.4348669 -7.1379204 0.71745229 0
3.0184038 -3.3295724 -0.14262009 0
4.7226858 -5.1983771 0.27270356 0
13.472615 -14.75491 2.5790637 0
3.7158637 -4.052269 0.020838529 0
6.5655942 -7.1304202 0.71844459 0
16.768806 -18.172951 4.8968978 0
3.375967 -3.6433516 -0.067909688 0
6.6307559 -7.1317577 0.72389233 0
16.870693 -18.114788 4.9031472 0
3.3913035 -3.6335871 -0.067718804 0
6.6811857 -7.1227055 0.72432733 0
17.021183 -18.1129 4.9242339 0
3.416671 -3.6240094 -0.07245937 0
6.741497 -7.1188793 0.72478426 0
17.210785 -18.147003 4.9552732 0
3.4370036 -3.6143596 -0.072235197 0
5.7435746 -6.0180202 0.46756983 0
15.091228 -15.742032 2.7966907 0
3.4773841 -3.6051118 -0.071877092 0
5.0142665 -5.1789804 0.27490774 0
10.623936 -10.932197 1.6831148 0
3.1907275 -3.2675838 -0.14589629 0
5.0745983 -5.1751156 0.27535677 0
17.513872 -17.785055 3.1655149 0
3.5530658 -3.5914438 -0.076244354 0
4.4760113 -4.5046668 0.13210803 0
7.1125684 -7.1262035 0.74229586 0
2.9636297 -2.9513898 -0.20969912 0
4.0138402 -3.9826539 0.013496995 0
7.2177176 -7.1333032 0.74796379 0
2.9938707 -2.9469242 -0.20945722 0
4.0543537 -3.9683707 0.013898343 0
5.2907782 -5.1592016 0.27698267 0
7.3432341 -7.1306901 0.74885416 0
3.0197275 -2.9172962 -0.20902738 0
4.124578 -3.9696937 0.014363438 0
6.2805572 -6.0133872 0.47631633 0
18.843147 -17.993132 3.9179943 0
3.7398376 -3.5497806 -0.079616517 0
5.4565134 -5.1523466 0.27817404 0
11.959455 -11.255141 1.7995414 0
3.7655597 -3.525167 -0.079232037 0
6.4217153 -5.9860053 0.48251677 0
27.840919 -25.885323 6.4959326 0
3.120702 -2.8940606 -0.21315473 0
4.8186183 -4.4509315 0.12990673 0
12.337827 -11.358081 1.8362361 0
3.8312976 -3.5062845 -0.083631545 0
6.5523634 -5.9784288 0.48346519 0
28.496868 -25.913628 6.5801897 0
3.1663966 -2.8747737 -0.21769056 0
4.331759 -3.9133358 0.011239588 0
6.628068 -5.9598107 0.4841361 0
28.898861 -25.91855 5.7128367 0
3.9071615 -3.4825985 -0.082927912 0
5.7929749 -5.1386533 0.28055602 0
13.074482 -11.563501 1.9044597 0
3.5703762 -3.1440315 -0.16229871 0
5.858418 -5.1298366 0.281066 0
28.403996 -24.76502 4.6643963 0
2.9980834 -2.6099041 -0.27657369 0
4.4779663 -3.8859107 0.0074387491 0
6.8743515 -5.9393964 0.49095416 0
14.37708 -12.404877 3.3960822 0
3.023421 -2.6003132 -0.27633157 0
4.0431995 -3.4600008 -0.086844414 0
5.161129 -4.3970947 0.12763973 0
8.4259529 -7.1516604 0.79598868 0
3.3384633 -2.8176446 -0.22608986 0
4.5890565 -3.8578196 0.0034018159 0
6.1046963 -5.1093683 0.28286445 0
8.5960894 -7.1649613 0.80200112 0
3.0945339 -2.5664299 -0.28059456 0
3.7276006 -3.0766251 -0.16571423 0
4.6697769 -3.8392303 0.0040804744 0
6.2253904 -5.0965514 0.28375962 0
15.709005 -12.800922 2.1715016 0
3.7880301 -3.0676696 -0.17025158 0
4.7354717 -3.8203316 -0.00033786893 0
6.3260093 -5.0833769 0.28452402 0
8.9275579 -7.1411939 0.81937349 0
3.1806748 -2.5328088 -0.28477278 0
3.8438036 -3.043581 -0.16969877 0
4.8211842 -3.8018339 0.00036498904 0
6.4566956 -5.0707521 0.28547332 0
9.1724224 -7.1709886 0.83071721 0
3.2313316 -2.5136073 -0.28929761 0
3.9094956 -3.0246599 -0.17412803 0
4.906929 -3.7832792 -0.0039370358 0
6.5727167 -5.0427794 0.28644872 0
7.688262 -5.8744292 0.51180506 0
23.295027 -17.71282 3.0201154 0
3.2871313 -2.4894567 -0.29375562 0
3.9902256 -3.005996 -0.17847025 0
5.0227199 -3.7652936 -0.0080561042 0
6.72369 -5.0204544 0.28759259 0
9.6731873 -7.1905036 0.84877682 0
3.3378904 -2.4652429 -0.29824421 0
4.0461326 -2.9768379 -0.18288642 0
5.1036453 -3.7366471 -0.0073151886 0
5.8859611 -4.2899141 0.11817817 0
6.8748794 -4.9881039 0.28881305 0
8.0801964 -5.8365521 0.51960933 0
10.018558 -7.2071066 0.86583948 0
3.4189689 -2.4315088 -0.30247721 0
4.6344199 -3.2848551 -0.10665968 0
6.0469251 -4.2677503 0.11936322 0
8.2811937 -5.8151946 0.52604681 0
27.86898 -19.497015 4.2748961 0
3.7894919 -2.6347609 -0.25178483 0
4.7201185 -3.266289 -0.11098239 0
6.1676903 -4.2498369 0.11525747 0
8.4568911 -5.8033881 0.53223801 0
27.757204 -18.966902 4.2334509 0
3.860034 -2.6209292 -0.25624576 0
4.7811441 -3.2321744 -0.11534122 0
6.3031983 -4.2422743 0.11615524 0
8.6526127 -5.7919497 0.53354889 0
27.82765 -18.555998 4.2171788 0
3.2998857 -2.1975567 -0.36140022 0
4.3394294 -2.8765452 -0.1952917 0
6.3988986 -4.2238894 0.11188862 0
8.8032246 -5.7796888 0.53957736 0
28.038837 -18.322081 3.4403167 0
3.345366 -2.1832688 -0.36601606 0
3.9614806 -2.5724838 -0.26025501 0
4.9374461 -3.1947858 -0.11909661 0
7.5743098 -4.87537 0.29405227 0
11.384234 -7.2931619 0.92868674 0
4.0070896 -2.5531552 -0.26483408 0
5.6882486 -3.6115036 -0.022728354 0
7.6901178 -4.8523693 0.29493931 0
11.668765 -7.3336897 0.94511807 0
3.4315674 -2.1445186 -0.37520972 0
3.7227771 -2.311166 -0.32471445 0
4.0680914 -2.5190132 -0.26921275 0
4.5320344 -2.7894897 -0.20346346 0
5.1340709 -3.148011 -0.1275534 0
5.8546453 -3.5692739 -0.026398212 0
9.4753799 -5.7468896 0.55394506 0
27.885281 -16.840832 3.3659427 0
46.373268 -27.979843 11.868409 0
4.6126876 -2.7707939 -0.20784259 0
6.8579917 -4.0965486 0.11065868 0
12.433674 -7.3932385 0.97932374 0
3.523109 -2.0907984 -0.38426557 0
3.8292344 -2.2627184 -0.33372393 0
4.6684074 -2.7466309 -0.21232978 0
6.0260301 -3.5271142 -0.030052632 0
8.1931019 -4.7710791 0.29860008 0
47.853642 -27.752644 6.8238769 0
46.766106 -27.081833 11.852711 0
4.7290187 -2.7275655 -0.21683115 0
6.1067901 -3.5033915 -0.03439641 0
8.3336792 -4.7585378 0.29953212 0
47.570908 -27.032972 6.7576418 0
3.9104769 -2.2188799 -0.33792558 0
5.4218802 -3.0576224 -0.14015934 0
7.1702914 -4.0267811 0.10804655 0
13.392978 -7.4865317 1.0243927 0
3.649931 -2.0276153 -0.39306447 0
3.9711924 -2.1947911 -0.34239551 0
4.3468871 -2.3881528 -0.28659543 0
4.8807302 -2.6698959 -0.22551444 0
6.3335705 -3.4471343 -0.037639439 0
8.6855936 -4.7046142 0.30202404 0
46.01939 -24.797686 12.765504 0
5.5887399 -2.9951599 -0.148727 0
10.703513 -5.7041469 0.58661318 0
46.684361 -24.84494 10.344021 0
4.0475559 -2.1457775 -0.35160229 0
6.4647269 -3.4092319 -0.041595399 0
10.859023 -5.6919456 0.59262252 0
48.555244 -25.418312 9.3907385 0
3.7716262 -1.9693027 -0.40694818 0
5.0424199 -2.6123967 -0.23415574 0
9.0025291 -4.6450052 0.30432585 0
14.470956 -7.4538159 2.6060889 0
4.5139875 -2.315582 -0.30010876 0
15.654258 -7.9862099 1.1391125 0
4.1338744 -2.0969968 -0.35575774 0
9.1583023 -4.622684 0.3053979 0
14.464978 -7.2876048 2.5922639 0
4.5696688 -2.2914035 -0.30461535 0
7.784801 -3.8819673 0.10271093 0
17.465578 -8.6636057 1.2348258 0
3.8581574 -1.9104918 -0.41103175 0
5.1939526 -2.5597241 -0.24290648 0
9.3791265 -4.6015553 0.30683804 0
3.5519652 -1.7386321 -0.45158836 0
4.6454821 -2.2625618 -0.30897507 0
7.935823 -3.8494442 0.098816603 0
11.839888 -5.7149277 0.61819041 0
49.707157 -23.915979 9.4685364 0
4.2405815 -2.033438 -0.3647038 0
6.0126319 -2.8618686 -0.16531456 0
8.0666513 -3.8216472 0.099771485 0
33.190189 -15.648735 3.7914329 0
3.9397054 -1.8515154 -0.42015836 0
6.073195 -2.8427896 -0.1698361 0
8.1573544 -3.7980967 0.095459148 0
33.235897 -15.408068 3.7884123 0
49.072456 -22.702221 10.598716 0
4.7772021 -2.1994336 -0.31779048 0
5.4162579 -2.478085 -0.25606731 0
9.9516706 -4.5264344 0.31067991 0
3.6738186 -1.6702442 -0.46543536 0
4.3523703 -1.9649558 -0.37359491 0
5.4669061 -2.4538224 -0.26060876 0
10.082263 -4.5086498 0.31154844 0
12.880974 -5.7239141 0.64414173 0
48.716702 -21.591814 9.174365 0
3.7195833 -1.640835 -0.46998039 0
51.525909 -22.593983 11.028701 0
4.4183879 -1.9258369 -0.37796083 0
4.9438243 -2.1419444 -0.33145455 0
5.5831985 -2.4055426 -0.26462612 0
6.3762264 -2.7324009 -0.1823574 0
7.3377852 -3.1229804 -0.064560443 0
8.6859922 -3.6717501 0.089353591 0
8.7211428 -3.6673317 0.089578837 0
10.674121 -4.4589996 0.31527054 0
10.689594 -4.4391432 0.31549132 0
13.946444 -5.7534542 0.67502373 0
14.036512 -5.755075 0.67552304 0
14.131551 -5.756835 0.68105114 0
14.266305 -5.774363 0.68169624 0
14.386134 -5.786623 0.68729091 0
14.501066 -5.7937789 0.69289517 0
14.601134 -5.7955885 0.69344956 0
14.691204 -5.7971921 0.6939435 0
14.840927 -5.8150458 0.69967252 0
15.159267 -5.9013638 0.71088731 0
15.38837 -5.950819 0.7168473 0
15.563021 -5.9741163 0.71767956 0
29.289459 -11.170944 1.8351841 0
3.9281957 -1.4984205 -0.49289003 0
3.9284203 -1.4883595 -0.49282411 0
3.9435709 -1.4835604 -0.49770936 0
3.9487941 -1.4736001 -0.49761412 0
3.9539161 -1.4686384 -0.49755916 0
3.9641376 -1.4587784 -0.49743459 0
3.9792876 -1.4539785 -0.50232041 0
3.9844091 -1.4490162 -0.50226593 0
3.9896309 -1.4390548 -0.5021714 0
3.9948525 -1.4290934 -0.50207698 0
4.0148702 -1.4294306 -0.50197446 0
4.0100937 -1.4192667 -0.50193965 0
4.0153146 -1.4093046 -0.50184572 0
4.0354624 -1.4046025 -0.50670338 0
4.0406828 -1.39464 -0.50660992 0
4.0458026 -1.3896761 -0.50655627 0
4.0708489 -1.3900716 -0.51142514 0
4.0611415 -1.3748492 -0.50638032 0
4.07129 -1.3699455 -0.51129758 0
4.0815082 -1.3600819 -0.51117551 0
4.0916262 -1.3552169 -0.51109338 0
4.1117721 -1.3505116 -0.51595271 0
4.1119914 -1.3404479 -0.51588964 0
4.1221099 -1.3355807 -0.51580822 0
4.1273279 -1.3256162 -0.5157162 0
4.1275468 -1.3155524 -0.51565349 0
4.1476917 -1.3108454 -0.52051377 0
4.1579075 -1.3009795 -0.52039313 0
4.1680541 -1.2960733 -0.52531207 0
4.1732702 -1.2861083 -0.52522075 0
4.188386 -1.2813395 -0.52511108 0
13.957625 -4.211215 0.33520487 0
10.688546 -3.1992431 0.063581884 0
8.8604259 -2.6315794 -0.11291087 0
8.8957844 -2.6170955 -0.11762318 0
8.9260159 -2.6075523 -0.11740369 0
8.9563456 -2.5930092 -0.1171453 0
8.9915743 -2.5835629 -0.11689782 0
9.03193 -2.5691762 -0.12158254 0
9.0671587 -2.5597274 -0.12133595 0
9.1073866 -2.5503759 -0.12106106 0
9.1526423 -2.5410829 -0.12575769 0
9.1829691 -2.5265343 -0.12550208 0
9.2182951 -2.5120826 -0.12521821 0
9.2585211 -2.5027268 -0.12494525 0
9.3037748 -2.4934278 -0.12964353 0
9.3341026 -2.4788692 -0.12938949 0
9.3744259 -2.4645078 -0.12907809 0
8.002326 -2.0865133 -0.26426002 0
6.8687048 -1.7736104 -0.34853336 0
6.0932202 -1.5577745 -0.42644718 0
6.0984383 -1.5477774 -0.42636487 0
6.1187792 -1.5330349 -0.43115833 0
6.1538935 -1.5286194 -0.43094465 0
6.1392117 -1.5132338 -0.43093786 0
6.1843524 -1.5089729 -0.43566778 0
6.1846666 -1.4938784 -0.43557623 0
6.2098784 -1.4842671 -0.43538186 0
6.2301216 -1.4745182 -0.44021639 0
6.2403359 -1.4646153 -0.44010755 0
6.2605481 -1.4549055 -0.43994233 0
6.2857881 -1.4452537 -0.44474897 0
6.3010969 -1.4304471 -0.44457409 0
6.3113103 -1.4205427 -0.44446626 0
6.3365488 -1.4108891 -0.44927379 0
6.3517609 -1.4010801 -0.44913825 0
6.3669724 -1.3912708 -0.44900301 0
6.3672824 -1.3761735 -0.4489139 0
6.4125161 -1.3669022 -0.45361033 0
6.4127297 -1.3568038 -0.45355996 0
6.4380627 -1.3421451 -0.45833179 0
5.6963897 -1.1774129 -0.51138234 0
5.0991187 -1.0405895 -0.54880762 0
4.6163435 -0.93097985 -0.58577681 0
29.776388 -5.86937 0.41122031 0
13.856042 -2.7018001 0.013765991 0
8.8808336 -1.7091826 -0.3073034 0
6.5700736 -1.248758 -0.46709695 0
5.1905398 -0.97663605 -0.56296575 0
4.697629 -0.87192214 -0.59501779 0
32.592052 -5.8897533 0.42629573 0
14.533482 -2.5980425 0.0030044317 0
10.96149 -1.9335784 -0.18740702 0
9.1882858 -1.5987352 -0.32503191 0
7.7036896 -1.3248041 -0.41145763 0
6.7124863 -1.135389 -0.48070326 0
6.732718 -1.1256269 -0.48554608 0
6.7530155 -1.1109027 -0.48535165 0
6.7732463 -1.1011394 -0.49019507 0
6.7835445 -1.0862252 -0.49005643 0
6.8037462 -1.0764986 -0.4899005 0
6.8240423 -1.0617721 -0.48970738 0
6.8293691 -1.0467225 -0.49459764 0
6.8745933 -1.037428 -0.49930504 0
6.8698926 -1.0222294 -0.4992502 0
6.072566 -0.88677877 -0.54776442 0
5.439641 -0.78444433 -0.59559369 0
4.901423 -0.69402039 -0.62797379 0
28.137037 -3.8715944 1.0738076 0
28.203026 -3.8223937 1.0744216 0
28.224298 -3.7573521 1.0749011 0
28.270287 -3.7077744 1.075404 0
28.261656 -3.637172 1.0757556 0
28.108147 -3.5588565 1.0753523 0
28.209305 -3.5003057 1.0762267 0
4.9830418 -0.61482859 -0.63712704 0
5.5668731 -0.67582232 -0.60934627 0
5.592093 -0.66616517 -0.61416221 0
5.5972886 -0.65617192 -0.61408722 0
5.622508 -0.6465137 -0.61890376 0
5.6227965 -0.631428 -0.61881912 0
24.286961 -2.6203556 -0.16497177 0
24.727345 -2.6080749 -0.17255071 0
13.163791 -1.3631302 -0.26754132 0
10.439691 -1.0566009 -0.40042648 0
8.6285954 -0.85237485 -0.48399153 0
5.7244077 -0.55255949 -0.63287759 0
28.902836 -2.6571085 -0.25056878 0
10.676657 -0.96003628 -0.41366425 0
6.5041633 -0.56674141 -0.60380602 0
5.8005958 -0.49342808 -0.64217246 0
10.873326 -0.87787062 -0.42719129 0
7.5437279 -0.59067374 -0.56341064 0
5.8415637 -0.44377065 -0.64670563 0
5.2276702 -0.38720211 -0.679685 0
32.746235 -2.2724233 -0.31309804 0
11.18084 -0.75232708 -0.44491795 0
9.1337929 -0.59423339 -0.52499104 0
7.7108798 -0.48274314 -0.58198261 0
5.9382544 -0.35973397 -0.66578257 0
5.3092098 -0.3080259 -0.68886113 0
32.910648 -1.7668939 -0.31462005 0
32.926857 -1.7016891 -0.31421706 0
16.120712 -0.79590303 -0.38890228 0
16.336287 -0.76949513 -0.39762411 0
16.676863 -0.74530655 -0.41069016 0
45.04985 -1.9425161 1.5590017 0
17.302933 -0.70091361 -0.43715557 0
7.9893341 -0.30622101 -0.60964465 0
9.5836611 -0.34520841 -0.56137288 0
12.167608 -0.41206062 -0.5029881 0
37.310726 -1.2392248 11.196729 0
19.736126 -0.57766998 -0.53362644 0
12.384112 -0.33528677 -0.51646101 0
12.454672 -0.30632865 -0.52093852 0
48.483891 -1.1268113 2.7963526 0
48.518467 -1.0480108 5.0669556 0
5.5030408 -0.10980557 -0.72189009 0
6.2030191 -0.11239433 -0.70319438 0
7.017961 -0.11217051 -0.66386974 0
7.0432544 -0.097477801 -0.66866767 0
41.26498 -0.51050049 9.2863007 0
7.073905 -0.062767498 -0.67333364 0
6.2843461 -0.043249026 -0.71743882 0
48.563934 -0.24657007 9.7014055 0
48.670822 -0.1378312 9.7225046 0
8.4651594 -0.0021756645 -0.66066897 0
10.240646 0.021060312 -0.61612916 0
24.49522 0.10867355 -0.72501743 0
24.836332 0.16311738 -0.74295127 0
13.652904 0.12087456 -0.59753549 0
47.455524 0.51663846 -0.56115532 0
46.445328 0.5847885 1.6138366 0
46.487183 0.68975872 1.6145625 0
46.504128 0.80017233 1.6151935 0
49.808296 0.91707075 5.2033186 0
6.4525571 0.13014817 -0.74074757 0
7.348155 0.16423045 -0.7108314 0
7.3584166 0.17916435 -0.71071327 0
10.755679 0.2890743 -0.66214192 0
29.96571 0.87307853 -0.95233655 0
47.53738 1.4816638 -0.56111443 0
47.544113 1.5822604 -0.56061935 0
47.118881 1.6449612 1.6374289 0
43.502014 1.5783582 4.5879292 0
7.4953294 0.28259325 -0.72952116 0
7.5206985 0.30230051 -0.73429334 0
9.0623655 0.3853552 -0.72571337 0
6.6355577 0.29327178 -0.76905549 0
7.5816655 0.356621 -0.73872471 0
9.1535234 0.4492518 -0.73494554 0
33.041107 1.6998159 -1.077162 0
33.082291 1.7695916 -1.0766377 0
45.340904 2.4380374 5.8416815 0
6.6819777 0.37305376 -0.77845061 0
9.2901487 0.53757614 -0.75382948 0
33.381592 2.01597 -1.0889063 0
45.924923 2.7492518 8.1062212 0
7.7339983 0.48497552 -0.76234937 0
18.228518 1.1837317 -0.88832772 0
39.610607 2.5824513 4.211833 0
39.667206 2.6770575 4.217567 0
43.585915 3.0054641 7.7149463 0
40.060631 2.8862054 4.2606115 0
38.726311 2.858042 5.9684024 0
38.181911 2.8999591 4.9756489 0
6.0387068 0.47052184 -0.82147217 0
20.643553 1.7054098 -1.0481542 0
61.6073 5.2431965 -2.2491062 0
41.685944 3.5202763 7.4021082 0
42.697968 3.6894844 8.613492 0
42.694679 3.7902503 8.6139278 0
8.0685863 0.7411297 -0.80946207 0
12.581993 1.1838534 -0.8234396 0
9.8774986 0.95041323 -0.81890023 0
44.831654 4.3583574 11.23286 0
41.976696 4.1798816 9.5067997 0
8.1954136 0.84471935 -0.82834721 0
7.0334468 0.73975772 -0.83501458 0
64.128059 7.0510159 -2.3526917 0
43.494373 4.7877622 13.107592 0
10.191295 1.1665477 -0.85630262 0
6.2582159 0.72870648 -0.86422193 0
10.312746 1.250055 -0.87030506 0
8.4237585 1.0372198 -0.86133015 0
39.986443 5.0425191 4.284647 0
8.5099363 1.1062157 -0.87058258 0
6.360199 0.84283382 -0.88820851 0
39.356266 5.3047504 5.1573811 0
14.456707 2.0122235 -0.98991382 0
10.757514 1.5243378 -0.92178452 0
7.3790178 1.0612354 -0.89684701 0
67.481766 9.9968462 -2.4922414 0
14.57292 2.189136 -0.65856481 0
14.518292 2.2152441 -0.65374851 0
11.045699 1.710721 -0.9544934 0
40.949059 6.4121938 8.3507824 0
6.5336328 1.0463555 -0.92146254 0
45.198017 7.3712769 2.6923194 0
45.114365 7.4583735 2.6922214 0
14.892787 2.4936514 0.3743864 0
47.236404 7.9810767 6.1707673 0
6.6050615 1.1308074 -0.94075596 0
7.633441 1.3238159 -0.94444048 0
9.1184025 1.6043431 -0.96030533 0
11.5917 2.0637851 -1.0201342 0
11.632269 2.0983188 -1.0247768 0
6.6615133 1.220449 -0.95009553 0
39.332691 7.2886639 5.200439 0
14.698497 2.75931 1.0744023 0
14.64232 2.790138 0.37421653 0
7.8066101 1.5172101 -0.97275209 0
6.7633286 1.3295518 -0.97413695 0
15.289435 3.0407186 1.8337069 0
14.723248 2.9606359 1.7803253 0
9.5343819 1.9647733 -1.0266564 0
14.651158 3.0429065 2.4802628 0
9.6408291 2.05356 -1.0407413 0
6.8707361 1.478794 -0.99799287 0
39.442684 8.5689754 6.2110739 0
12.875063 2.86221 -1.1750817 0
8.096468 1.8144284 -1.030067 0
13.122513 3.008986 -1.2081825 0
13.208319 3.0578496 -1.2175357 0
6.9882684 1.6378939 -1.0217572 0
10.056459 2.3988762 -1.1071894 0
42.813072 10.365983 1.5812777 0
8.2900114 2.0376375 -1.0631758 0
8.3459053 2.0920842 -1.0776681 0
14.087087 3.5913849 -1.3257579 0
14.369445 3.7324789 -1.3586912 0
14.618226 3.816596 6.7081003 0
14.748339 3.9725745 -1.4057333 0
14.864456 4.0410299 -1.4198428 0
39.341618 10.739295 10.219036 0
8.6205053 2.3844476 -1.1301168 0
46.109077 12.844607 8.4585609 0
8.6968136 2.4687247 -1.1443979 0
33.367069 9.6366367 -2.7379961 0
11.024347 3.2078571 -1.2589513 0
11.10558 3.2869966 -1.2732185 0
11.216962 3.3756657 -1.2872893 0
8.9711313 2.7459335 -1.1969026 0
7.4990044 2.3291147 -1.1465126 0
18.369099 5.8429189 -1.8491087 0
18.963753 6.1245813 -1.9198356 0
19.427706 6.3682365 -1.9764228 0
9.3166151 3.1025033 -1.2687654 0
11.876725 4.0136256 -1.3964195 0
7.7338619 2.6523314 -1.2041094 0
22.457203 7.8661017 -2.3444374 0
12.267004 4.3592577 -1.4630767 0
7.8866887 2.8410401 -1.2426347 0
29.196995 10.734891 -2.4171531 0
9.8049145 3.6578951 -1.3691847 0
9.9367676 3.7814662 -1.3930432 0
8.1062117 3.1493731 -1.3003904 0
13.583002 5.4086699 -1.6772441 0
29.406406 11.943197 -3.2219462 0
8.3000832 3.417845 -1.3484375 0
14.321982 6.0048561 -1.7961385 0
10.542315 4.5058737 -1.5272888 0
8.5041275 3.7012413 -1.4013941 0
8.5705414 3.8007514 -1.4206997 0
16.22773 7.3660645 -2.1060095 0
11.025723 5.096386 -1.632686 0
8.8254433 4.1486783 -1.4881811 0
64.964111 31.210987 -2.6091373 0
65.756584 32.132473 -2.6517293 0
9.0600863 4.481833 -1.5558273 0
11.732142 5.9044347 -1.786175 0
11.935413 6.1374536 -1.8343115 0
23.312626 12.326398 -3.2502203 0
12.448153 6.6871057 -1.9447038 0
9.5551233 5.2179728 -1.6957705 0
22.478069 12.526312 -3.1644313 0
13.209262 7.4789996 -2.107959 0
9.8208799 5.6510887 -1.7779629 0
14.025505 8.2749949 -2.2858913 0
14.568039 8.8140259 -2.4011734 0
28.448124 17.622246 -1.0598054 0
10.403134 6.5867453 -1.9568801 0
10.668299 6.98458 -2.0342147 0
11.035195 7.5114131 -2.14557 0
11.284844 7.8692117 -2.2180915 0
11.539594 8.2369986 -2.2955697 0
17.034935 22.204477 -3.4701719 0
20.692127 27.930832 -4.3981938 0
14.150184 20.008904 -2.443727 0
19.985027 28.855562 3.7549219 0
17.200323 25.425406 3.3189867 0
18.374399 27.515875 -4.9683385 0
16.305534 24.692293 3.211642 0
16.782515 25.696873 1.1672175 0
14.222519 21.931215 -4.4932265 0
15.243424 23.822199 -1.5420538 0
15.762972 24.847982 0.44378507 0
15.638947 24.867477 3.188077 0
14.078094 22.535019 -0.18751162 0
15.43508 24.944778 1.1220845 0
13.088639 21.294199 -1.9117534 0
15.553544 25.494808 3.2342536 0
15.377382 25.45232 3.2180665 0
13.574244 22.604534 0.42462453 0
13.558912 22.807405 1.0400808 0
13.683048 23.251461 1.0520138 0
13.905076 23.887976 -0.85994899 0
12.807569 22.275837 -4.4208269 0
12.277758 21.535685 -0.74101341 0
12.142798 21.552864 -4.2467723 0
12.751928 23.064102 1.0309342 0
15.368631 28.196676 3.4503634 0
12.088744 22.367483 -2.5599005 0
13.994835 26.159904 -3.0333095 0
12.066555 22.785782 -0.78392172 0
13.007805 24.938543 1.0824906 0
11.763222 22.802298 -0.18071473 0
11.891127 23.369867 -4.518374 0
11.656849 23.11175 -0.79050171 0
11.099235 22.292618 -3.0910084 0
10.898177 22.109928 -1.89272 0
10.838934 22.245907 -1.9026914 0
15.709536 32.69265 3.8495665 0
12.640177 26.800997 1.1203687 0
13.289151 28.825075 1.1747169 0
13.224872 29.38567 -1.0638922 0
10.157842 22.995657 -0.76449907 0
13.357181 31.530504 0.44751823 0
11.140667 26.820749 -0.25342998 0
11.024085 27.882851 1.1187434 0
10.713086 27.242352 4.5401578 0
11.541253 29.778229 1.1720006 0
9.859972 25.592426 2.9706206 0
9.9407043 26.512293 1.7336196 0
10.321639 28.465822 3.9612398 0
8.8110046 24.970177 4.1277452 0
8.9547005 25.588652 2.9353139 0
9.1241646 26.282011 1.7082278 0
9.1198273 26.409578 3.6735246 0
8.7208052 25.468971 3.5486317 0
8.5010891 26.149418 2.9692504 0
-3.8285615 20.497543 0.8221314 0
-4.1622119 20.035988 -2.0725024 0
-4.6851945 21.813091 -3.8794601 0
-4.7207665 21.533049 -1.7304037 0
-4.8330321 21.78615 -2.810106 0
-4.6488857 20.564901 -0.66289747 0
-4.9020677 21.26391 0.3231132 0
-5.1182652 21.908623 -3.3708549 0
-4.7494445 19.993933 -0.15492171 0
-5.1969967 21.436386 -0.18751368 0
-4.9908795 20.212816 0.80478704 0
-5.8020506 23.260908 -0.79462659 0
-5.4053059 21.436932 -2.263289 0
-6.278604 24.576359 4.4972744 0
-5.3631916 20.731724 -0.17514452 0
-5.1197495 19.590254 -0.15244818 0
-5.7977409 21.987837 0.32180187 0
-6.0964556 22.921843 -0.78167689 0
-5.8515253 21.782635 -1.7839692 0
-6.621675 24.309147 3.8652768 0
-5.9907112 21.748461 0.32042015 0
-6.0698481 21.834951 -0.20461896 0
-5.8198633 20.816851 2.843411 0
-6.0541611 21.422419 0.83428109 0
-6.1044159 21.437592 0.83913159 0
-6.0376616 21.016066 1.3382018 0
-6.4381104 22.24564 2.4801865 0
-5.9165139 20.26141 0.80652857 0
-6.1786942 21.001568 1.337647 0
-6.4271083 21.655451 2.4285948 0
-6.5069523 21.750769 2.4385762 0
-7.5613136 25.089178 3.3841069 0
-6.3686042 20.976736 3.9219081 0
-6.610785 21.67741 -2.8669617 0
-6.6497841 21.666866 -0.2071397 0
-6.6313305 21.43166 -0.2027202 0
-9.396904 30.14624 -0.4032962 0
-7.0334868 22.401291 0.86354983 0
-8.3708649 26.483749 2.9151511 0
-7.05897 22.17054 3.5878146 0
-7.1093469 22.160713 3.5876148 0
-6.85534 21.217478 4.5210028 0
-8.272253 25.440157 6.6627383 0
-7.0773897 21.683237 -0.21356124 0
-6.9868836 21.264433 1.3605943 0
-7.0946341 21.479387 4.0357938 0
-6.9774876 20.943907 3.944747 0
-8.2399206 24.560099 3.9603453 0
-7.5057335 22.203194 3.051399 0
-7.2705364 21.421253 -3.9449003 0
-8.2453566 24.066339 5.7291012 0
-6.6512442 19.350283 -0.16347283 0
-6.8210516 19.704082 0.79692328 0
-6.8622589 19.651037 -2.6133432 0
-7.0338898 20.016895 -0.18292317 0
-8.819006 24.969566 2.7895608 0
-8.822422 24.825768 4.6491547 0
-9.1774044 25.644665 3.5001988 0
-8.0376377 22.290968 2.5249007 0
-7.6120582 20.988894 5.0628796 0
-9.3968678 25.738951 6.8148651 0
-7.1601653 19.50663 -2.6096809 0
-7.1352582 19.303259 -3.5651441 0
-9.4899559 25.482883 7.43888 0
-7.4378381 19.901905 0.31046432 0
-7.9733634 21.197281 1.36721 0
-7.4617019 19.722994 2.2799013 0
-8.213604 21.571072 2.467432 0
-9.5537586 24.921591 2.8071027 0
-8.9737024 23.275682 4.414556 0
-7.7864842 20.034054 2.3147194 0
-9.0775366 23.214323 2.6390886 0
-7.9809918 20.279696 2.3447583 0
-8.4992533 21.429806 0.8462007 0
-8.0124683 20.084661 2.3291626 0
-8.5406513 21.264761 0.84064078 0
-8.5904827 21.235857 0.31042683 0
-8.6506958 21.261005 0.31030297 0
-7.8279433 19.091642 -2.107847 0
-9.4715624 22.902447 6.8021836 0
-9.6443739 23.165251 5.647356 0
-8.6409273 20.584375 0.82858455 0
-8.2491808 19.5571 3.7970808 0
-8.9419556 21.051556 2.9789004 0
-9.4599113 22.154385 5.4353089 0
-9.7535686 22.724241 6.1709018 0
-9.0683537 21.048632 -0.76145113 0
-9.7460299 22.530415 2.600347 0
-9.1533213 21.027004 2.9882305 0
-9.8491011 22.506542 4.9400911 0
-9.0544634 20.615944 -2.3274992 0
-9.9921503 22.587559 7.3948736 0
-7.9842591 18.00136 0.30389521 0
-9.2908163 20.799673 -1.2877167 0
-10.10865 22.545143 3.1943555 0
-9.0424633 20.101103 -2.7887638 0
-8.4808388 18.754812 -0.6555829 0
-10.337803 22.761814 2.6442778 0
-11.218114 24.58573 5.4064927 0
-9.2144127 20.134581 -1.7591624 0
-10.293132 22.389412 0.87847638 0
-8.8508768 19.171534 4.7944927 0
-9.467598 20.43725 -2.8590972 0
-10.217645 21.91284 7.2425551 0
-9.0293455 19.273081 -1.6807948 0
-10.442056 22.216494 2.5976272 0
-8.6168623 18.269329 -3.5021532 0
-9.7222252 20.479071 5.1253548 0
-10.572453 22.170502 -2.5627942 0
-8.9490242 18.690447 -0.66203117 0
-9.2115126 19.118092 -1.6766739 0
-13.643618 28.195227 1.7737756 0
-9.3176069 19.169073 3.8031447 0
-8.9315767 18.271948 4.1370544 0
-9.3395758 19.007376 4.8077726 0
-8.8291435 17.86566 4.5363317 0
-11.454988 23.049038 5.7820835 0
-9.2784843 18.58066 -3.6131268 0
-9.6614037 19.250479 6.4825153 0
-11.36786 22.586266 0.8911134 0
-11.466434 22.685654 4.4810863 0
-3.9991207 7.8799963 -0.9503603 0
-13.694745 26.883301 -1.0944896 0
-11.42717 22.347219 3.2353868 0
-3.9896004 7.770154 -1.1455989 0
-3.9900498 7.7397571 -0.93568265 0
-11.793762 22.802078 0.90055621 0
-11.693717 22.520823 4.4751201 0
-10.537608 20.176907 4.0424547 0
-9.4037905 17.934534 -3.5149906 0
-10.615256 20.128561 6.2622218 0
-10.630321 20.112053 0.83208823 0
-10.420454 19.636198 3.9564703 0
-9.1386404 17.161346 -2.4361649 0
-10.70477 20.014511 -0.75830483 0
-10.982034 20.459522 3.0120409 0
-10.781326 19.999603 5.6865253 0
-9.8729382 18.269413 0.29963231 0
-11.24717 20.739292 3.6170514 0
-10.745182 19.756586 -2.3289914 0
-12.287251 22.499027 -0.29133061 0
-10.985747 20.047358 4.0560751 0
-10.464911 19.004915 4.3899775 0
-9.9144831 17.902357 4.6487432 0
-9.7862549 17.596125 5.073328 0
-10.793782 19.345036 -1.7650576 0
-11.437151 20.4041 0.30086064 0
-10.620326 18.872177 2.8292477 0
-9.993721 17.699432 -3.5319362 0
-10.058909 17.72451 -3.5420294 0
-10.996944 19.269194 5.5593452 0
-13.487134 23.565762 0.3033331 0
-8.1256933 14.122004 -0.085780025 0
-10.881395 18.838131 2.3285832 0
-10.186934 17.554323 3.1522574 0
-9.8732252 16.947779 -3.3983543 0
-10.133759 17.335878 -1.5780963 0
-13.819408 23.47253 6.0924206 0
-13.53389 22.904182 -2.8082578 0
-15.738849 26.523174 -0.41011903 0
-8.4324751 14.146676 0.29355255 0
-11.098679 18.576698 -3.7774832 0
-11.488713 19.160021 -1.7870746 0
-8.1301155 13.500395 0.29277906 0
-7.6400084 12.645687 2.3669467 0
-7.7197042 12.706334 2.0269053 0
-12.232688 20.052065 5.293292 0
-7.4531546 12.153041 3.6713104 0
-15.585604 25.385906 -0.38736019 0
-7.8803544 12.776052 2.4016986 0
-15.870608 25.617823 5.9826193 0
-11.324412 18.237366 -1.2037802 0
-8.8990164 14.277107 0.29277766 0
-8.9094181 14.222011 0.29263294 0
-13.332405 21.175592 0.87829125 0
-12.46876 19.725428 2.4719694 0
-7.9160995 12.447931 0.63589483 0
-8.0408545 12.583222 0.63591957 0
-8.0561752 12.543157 0.63580036 0
-8.460721 13.122376 2.1161833 0
-9.1033735 14.058612 2.6468379 0
-11.679116 17.920378 -0.20025241 0
-12.600212 19.243153 -0.23934445 0
-8.7694225 13.325261 0.29097602 0
-7.9362674 11.963597 3.3448324 0
-7.9517732 11.943108 3.6897445 0
-10.446903 15.636729 -1.0225639 0
-14.936932 22.260267 -0.95273948 0
-8.0471363 11.903556 3.344471 0
-11.884833 17.486309 2.2683873 0
-13.180805 19.256567 -2.9854841 0
-9.7960758 14.218148 3.5458012 0
-9.8114128 14.173076 3.5406768 0
-9.8815079 14.213147 3.5506163 0
-9.2537642 13.232725 2.1747839 0
-17.138769 24.401922 5.1973195 0
-13.141938 18.58662 -0.236788 0
-8.0720615 11.355162 5.3582621 0
-17.045185 23.912706 3.7265253 0
-8.1815138 11.391535 4.3131337 0
-10.104093 13.9873 3.959738 0
-18.000284 24.802565 5.3315082 0
-8.0835257 11.050194 4.9176292 0
-9.1583147 12.435775 2.4583623 0
-9.7203827 13.124216 0.66869915 0
-10.421138 13.981275 4.8541307 0
-13.94271 18.620672 -4.0931721 0
-14.059459 18.613678 -2.4383957 0
-9.7335453 12.737052 1.7829186 0
-11.132347 14.45553 6.4537978 0
-11.240609 14.518583 3.7487385 0
-11.129408 14.276671 0.28844565 0
-9.5094824 12.085528 6.7121 0
-10.46105 13.224031 5.5476279 0
-8.7421942 10.904608 5.3761997 0
-11.313935 14.027084 4.1177158 0
-9.2802362 11.402586 3.4112442 0
-7.4101577 9.0098019 1.374905 0
-7.2301159 8.7405977 0.019717425 0
-10.768453 12.948837 5.1166496 0
-11.336584 13.561058 4.0418558 0
-9.7729492 11.647587 -1.4941005 0
-9.7682791 11.58741 -1.4841951 0
-11.521868 13.591422 3.6416366 0
-7.5864816 8.8944006 1.3744349 0
-7.6166158 8.8943605 1.3793865 0
-8.0504274 9.360692 0.85953701 0
-7.6818886 8.8892984 1.3792832 0
-8.9549274 10.330144 3.5248802 0
-9.6410799 11.085369 -0.73985767 0
-26.584024 30.447607 -1.5919127 0
-11.088215 12.654769 8.7356739 0
-11.908781 13.555624 4.1210237 0
-9.7762117 11.090832 -1.4450386 0
-8.2156668 9.2816229 -0.58081651 0
-12.269896 13.789253 6.0459013 0
-10.151888 11.369965 -0.070106983 0
-26.987644 30.100901 -1.5929953 0
-7.6383414 8.4792032 0.2836791 0
-10.400588 11.527345 -2.6401796 0
-9.6809368 10.685071 4.0594506 0
-7.8381681 8.6246109 0.01364094 0
-9.5059948 10.43569 2.6042633 0
-9.8185024 10.749363 -1.0756381 0
-8.1530228 8.899785 0.28365102 0
-9.1671543 9.9748516 2.5089903 0
-10.023411 10.874762 -1.4457074 0
-28.740026 31.079784 0.29128104 0
-10.332664 11.15083 -2.215673 0
-10.778206 11.59952 0.28443322 0
-13.928843 14.957143 4.6305728 0
-10.77349 11.54435 0.28435549 0
-10.642547 11.386134 -2.2757072 0
-8.3857775 8.9411163 4.7484279 0
-10.967135 11.681634 -2.3456674 0
-10.558798 11.204747 -1.1508789 0
-10.14848 10.727913 6.4539161 0
-10.194491 10.764402 -1.8010814 0
-10.949407 11.52875 0.65411651 0
-10.499302 11.039567 -1.4960476 0
-10.193846 10.682775 6.4537935 0
-12.698418 13.288428 5.0946045 0
-14.648857 15.298597 2.7601759 0
-10.809565 11.264277 -0.80608904 0
-10.833675 11.280724 -2.6610885 0
-10.525208 10.923838 -1.1312468 0
-8.7592421 9.0546675 -0.006860435 0
-10.834221 11.185357 -2.6512272 0
-10.460855 10.758382 -1.116405 0
-9.4612179 9.6960316 6.3182397 0
-10.68039 10.929152 -1.8664112 0
-11.140432 11.363765 -0.45633319 0
-8.4677811 8.6000576 4.9978337 0
-11.24221 11.39108 3.2986097 0
-10.488971 10.589274 3.8133366 0
-7.7222695 7.7721014 0.027520329 0
-15.06142 15.12208 3.2844734 0
-10.497158 10.507692 -1.451787 0
-9.3469219 9.3213291 4.7428541 0
-14.123924 14.069448 4.5241027 0
-13.466594 13.37601 7.6938672 0
-10.85916 10.764546 3.5331771 0
-11.714119 11.578947 6.2783432 0
-14.084587 13.899037 4.4889259 0
-9.4223871 9.2661247 4.747705 0
-9.3683434 9.1897678 6.4976506 0
-14.065387 13.763332 4.9487681 0
-9.0684881 8.8500261 5.2325215 0
-10.702998 10.432489 -2.172101 0
-9.5877066 9.3110256 4.7975888 0
-14.110534 13.678782 3.5135839 0
-11.834611 11.434279 5.0030403 0
-15.254039 14.715512 3.2637601 0
-12.199681 11.744059 6.0030642 0
-10.653802 10.246872 -2.1472867 0
-12.204919 11.688929 5.9929962 0
-12.288857 11.750637 3.4880013 0
-9.9628315 9.5012827 4.5774593 0
-9.1177912 8.6721945 0.86724126 0
-13.033836 12.370497 4.9880395 0
-11.781757 11.146943 7.5027299 0
-13.004137 12.280297 4.9679627 0
