# .PCD v0.7 - Point Cloud Data file format
VERSION 0.7
FIELDS x y z intensity
SIZE 4 4 4 4
TYPE F F F F
COUNT 1 1 1 1
WIDTH 1407
HEIGHT 1
VIEWPOINT 0 0 0 1 0 0 0
POINTS 1407
DATA ascii
-0.58647197 -6.7735872 -0.59393787 0
-0.57143342 -6.7736988 -0.59394383 0
-0.55139422 -6.7738371 -0.59396434 0
-0.63270515 -8.0038614 -0.56147361 0
-0.61260837 -7.9939995 -0.56138396 0
-0.59761685 -8.0041103 -0.5614866 0
-0.58254635 -7.9992218 -0.56143332 0
-0.56250226 -7.9993587 -0.56144726 0
-0.54248446 -8.0044956 -0.56151283 0
-0.52741402 -7.9996061 -0.5614593 0
-0.50732869 -7.9947944 -0.5564214 0
-0.4923107 -7.9999046 -0.55647135 0
-0.47224048 -7.9950409 -0.55643296 0
-0.45717022 -7.9901509 -0.55637932 0
-0.43715137 -7.9952869 -0.5564431 0
-0.41708124 -7.9904227 -0.55640459 0
-0.40203711 -7.9905324 -0.55640221 0
-0.46061012 -9.685914 -0.50367808 0
-0.5246349 -11.511984 -0.38226303 0
-0.49449703 -11.497171 -0.38213161 0
-0.46938518 -11.487332 -0.38203642 0
-0.4443253 -11.487493 -0.38204405 0
-0.41923949 -11.482652 -0.38200018 0
-0.39417964 -11.482812 -0.38200751 0
-0.36906809 -11.472971 -0.38191208 0
-0.34400827 -11.47313 -0.38191918 0
-0.3189472 -11.473289 -0.38192472 0
-0.28887266 -11.473525 -0.3769469 0
-0.26370975 -11.453685 -0.37674871 0
-0.23867582 -11.458842 -0.37680647 0
-0.21353889 -11.444001 -0.37665942 0
-0.18847923 -11.444159 -0.3766658 0
-0.16339388 -11.439316 -0.37662092 0
-0.13825728 -11.424475 -0.37647381 0
-0.11324898 -11.43463 -0.37658194 0
-0.088112526 -11.419788 -0.37643471 0
-0.058053065 -11.41997 -0.3764554 0
-0.03289156 -11.400126 -0.37625751 0
-0.0078560989 -11.405283 -0.37631223 0
0.018742258 -14.162426 -0.19942075 0
0.070404336 -18.945887 0.081787646 0
0.18953431 -31.338457 0.68538392 0
0.37910894 -46.033298 1.9555244 0
0.035549253 -4.6822696 -0.66275048 0
0.052955959 -5.2126207 -0.6431644 0
0.070004806 -5.8231192 -0.60938489 0
0.095623359 -6.7135983 -0.58346844 0
0.13479763 -7.8992863 -0.54557788 0
0.1816344 -9.5601959 -0.49251774 0
0.20671085 -9.5553503 -0.49248192 0
0.22681263 -9.5454807 -0.49238071 0
0.29325205 -11.332191 -0.37060723 0
0.31833637 -11.327343 -0.37056068 0
0.3434459 -11.317496 -0.37046346 0
0.36853015 -11.312649 -0.37041679 0
0.39361438 -11.307801 -0.37036994 0
0.41869852 -11.302954 -0.37032309 0
0.4437575 -11.303105 -0.37032649 0
0.46886671 -11.293257 -0.37022898 0
0.49395069 -11.288408 -0.37018183 0
0.51903433 -11.28356 -0.37013492 0
0.53914338 -11.273685 -0.37002268 0
0.56925213 -11.263862 -0.36993954 0
0.59428757 -11.269011 -0.36999074 0
0.76625633 -14.011846 -0.19298261 0
0.79637724 -14.002018 -0.19288281 0
1.1135128 -18.796688 0.083158359 0
1.9052606 -30.942383 0.67913353 0
2.9246938 -46.001186 1.9554192 0
0.29631019 -4.6742606 -0.66764724 0
0.3438164 -5.1998048 -0.64301896 0
0.3960332 -5.7904687 -0.60904968 0
0.47189179 -6.6562376 -0.57789552 0
0.56635022 -7.8121867 -0.53968751 0
0.69895989 -9.3585558 -0.48047772 0
0.86529469 -11.200678 -0.36429808 0
1.1073363 -13.953782 -0.19240704 0
1.5248604 -18.713915 0.083985373 0
2.5826015 -30.770838 0.68082917 0
3.9663739 -46.106388 1.964238 0
0.40171286 -4.6551166 -0.66243947 0
0.45922878 -5.1806555 -0.64280736 0
0.46926004 -5.1807323 -0.64280152 0
0.47929129 -5.180809 -0.6427958 0
0.49436101 -5.1759601 -0.6377548 0
0.50441664 -5.1710367 -0.63769937 0
0.51444781 -5.1711135 -0.63769341 0
0.52950341 -5.1662149 -0.63765204 0
0.53949618 -5.1712408 -0.64269531 0
0.54956639 -5.166368 -0.63763916 0
0.55959761 -5.1664438 -0.63763309 0
0.57459044 -5.171494 -0.64269018 0
0.58468425 -5.1616201 -0.63758516 0
0.59965277 -5.17167 -0.64269161 0
0.60970831 -5.1667461 -0.6426357 0
0.61973947 -5.166822 -0.64262927 0
0.62983304 -5.1569471 -0.63752425 0
0.64477766 -5.1719961 -0.64267945 0
0.65480888 -5.1720715 -0.64267266 0
0.66492641 -5.1571975 -0.63751841 0
0.67994368 -5.1572471 -0.64252543 0
0.6899755 -5.1573229 -0.64251781 0
0.70000666 -5.1573977 -0.64251089 0
0.71006191 -5.1524725 -0.64245486 0
0.72506887 -5.1575708 -0.64251089 0
0.73514807 -5.1476464 -0.64240575 0
0.75013119 -5.1577439 -0.64251065 0
0.7602101 -5.147819 -0.64240551 0
0.77019334 -5.1578927 -0.64249635 0
0.78033382 -5.1380172 -0.63729334 0
0.79530334 -5.1480656 -0.64239752 0
0.80541974 -5.1331892 -0.63724363 0
0.81547469 -5.1282635 -0.63718736 0
0.83044499 -5.1383119 -0.64229047 0
0.83558494 -5.118412 -0.63707411 0
0.85545945 -5.1484823 -0.64238667 0
0.86553812 -5.1385565 -0.64228141 0
0.87556922 -5.1386299 -0.64227366 0
0.89052904 -5.1537256 -0.64242566 0
0.90060759 -5.1437998 -0.64232028 0
0.91063869 -5.1438727 -0.64231229 0
0.92071706 -5.1339459 -0.64220703 0
0.93077171 -5.1290197 -0.6421504 0
0.94582629 -5.1241159 -0.64210749 0
0.95583373 -5.1291885 -0.6421479 0
1.078239 -5.710155 -0.60807991 0
1.2445793 -6.5213652 -0.57135749 0
1.4647778 -7.5829129 -0.52719676 0
1.7633376 -9.0100536 -0.46177468 0
1.7784097 -9.0051441 -0.46170661 0
1.7984815 -9.0002584 -0.46165237 0
1.8185546 -8.9953728 -0.46159616 0
1.83865 -8.985487 -0.46149316 0
1.8587215 -8.9806013 -0.4614388 0
1.87877 -8.9807148 -0.46143225 0
1.8938652 -8.9708052 -0.46131566 0
1.9188902 -8.9759407 -0.46137062 0
1.9389863 -8.9660549 -0.46126619 0
1.9540813 -8.9561443 -0.46114954 0
1.9791294 -8.9562798 -0.46115598 0
1.9991778 -8.9563923 -0.46114883 0
2.0192957 -8.9415045 -0.46099749 0
2.0393438 -8.9416161 -0.46099022 0
2.0544386 -8.9317064 -0.46087351 0
2.0745099 -8.9268179 -0.46081808 0
2.0946043 -8.9169292 -0.46071473 0
2.1146755 -8.9120407 -0.46065924 0
2.1347466 -8.9071512 -0.46060368 0
2.1547947 -8.9072618 -0.46059588 0
2.1699359 -8.887352 -0.46038225 0
2.1850657 -8.872488 -0.45521805 0
2.2149861 -8.8975945 -0.46047506 0
2.6625896 -10.600882 -0.34284601 0
2.6777825 -10.570967 -0.34252718 0
2.7078383 -10.571119 -0.34253415 0
2.7328703 -10.576248 -0.34257576 0
2.7530174 -10.556356 -0.34236559 0
2.7780728 -10.556485 -0.34235904 0
2.7981968 -10.541592 -0.34219649 0
2.8232749 -10.53672 -0.34214219 0
2.8482847 -10.546848 -0.34223023 0
2.8684549 -10.521955 -0.34197125 0
2.8935556 -10.512084 -0.34186926 0
2.9136109 -10.512189 -0.341849 0
2.9387112 -10.502316 -0.3417469 0
2.9637439 -10.507443 -0.34178677 0
2.9838896 -10.487549 -0.34157696 0
3.0138996 -10.497697 -0.34167686 0
3.0340223 -10.482802 -0.34151426 0
3.0541899 -10.457907 -0.34125724 0
3.0791552 -10.478032 -0.34143808 0
3.0993452 -10.448136 -0.34113404 0
3.1244001 -10.448262 -0.34112588 0
3.1445012 -10.438367 -0.34100899 0
3.1695783 -10.433492 -0.34095356 0
4.0229812 -13.148997 -0.17861569 0
5.5077915 -17.868452 0.09329997 0
8.9951124 -28.980181 0.68508995 0
11.508114 -36.82132 1.7002612 0
1.4153373 -4.4823527 -0.66528988 0
1.5782564 -4.9733624 -0.64028025 0
1.7659503 -5.5246196 -0.60089135 0
2.027658 -6.2961469 -0.56874895 0
2.3634005 -7.2981777 -0.51894331 0
2.8275819 -8.665946 -0.45287386 0
3.4004817 -10.354646 -0.34006271 0
4.3140726 -13.055365 -0.17755404 0
4.3392277 -13.035483 -0.17733917 0
4.3693161 -13.030622 -0.17727718 0
4.3994269 -13.020761 -0.1771684 0
4.4344716 -13.025922 -0.17721212 0
4.4546919 -12.991018 -0.17684478 0
4.4848027 -12.981156 -0.17673585 0
6.154952 -17.701281 0.095222399 0
10.033624 -28.689396 0.68839163 0
11.997538 -34.096867 1.6134244 0
1.5661057 -4.4134359 -0.65948772 0
1.7589598 -4.9245143 -0.63968575 0
1.7739774 -4.9245548 -0.64468646 0
2.2535443 -6.2274528 -0.56793594 0
2.624403 -7.2196054 -0.51801574 0
2.6395307 -7.1996889 -0.51781535 0
2.6545491 -7.2047701 -0.51784658 0
2.6696332 -7.1948528 -0.51773894 0
2.6896951 -7.1899567 -0.51768994 0
2.704757 -7.1850386 -0.51762843 0
3.2341115 -8.5430326 -0.45143202 0
3.8724513 -10.166943 -0.33793959 0
4.9114909 -12.823091 -0.17493868 0
4.9416218 -12.808225 -0.17478275 0
4.9667735 -12.788338 -0.17456836 0
6.8421993 -17.529177 0.097252771 0
7.3681893 -18.75071 0.55486208 0
7.2511182 -18.349352 1.0089976 0
7.2616148 -18.254383 1.0099773 0
1.7518302 -4.3595986 -0.66383982 0
1.9597906 -4.855722 -0.64387274 0
2.1876321 -5.3921103 -0.604316 0
2.4995995 -6.1338482 -0.56684172 0
2.9156237 -7.1061554 -0.51672471 0
3.4801648 -8.4392614 -0.4502615 0
4.1785131 -10.083376 -0.33695135 0
5.2730703 -12.654684 -0.17306519 0
7.3035369 -17.441063 0.098328531 0
7.4982347 -17.790979 0.54480767 0
7.4304614 -17.539711 0.98741663 0
1.8472544 -4.3252234 -0.66341698 0
2.0702584 -4.8163996 -0.64340556 0
2.3081448 -5.3478169 -0.60378945 0
2.640209 -6.0746222 -0.56617427 0
3.0811775 -7.0669661 -0.52123094 0
3.670912 -8.3701954 -0.44946125 0
4.4093471 -10.009442 -0.3360866 0
5.5640931 -12.560946 -0.17198235 0
7.7048817 -17.317684 0.099755526 0
8.0135918 -17.903084 0.54884499 0
7.8863335 -17.521547 0.99276245 0
1.9426982 -4.2808495 -0.66290474 0
2.1707952 -4.7570829 -0.63773429 0
2.4286666 -5.2935266 -0.60317409 0
2.7707772 -6.0153594 -0.56548643 0
3.246763 -7.0128279 -0.52060235 0
3.856642 -8.2910671 -0.45356169 0
4.6253204 -9.8904476 -0.33478174 0
5.8649993 -12.482244 -0.17106152 0
8.0814981 -17.114193 0.10196288 0
8.3803663 -17.664515 0.55143434 0
8.362051 -17.538534 1.0077633 0
2.0381298 -4.2364721 -0.66239345 0
2.2762449 -4.7127352 -0.63721359 0
2.5540838 -5.259203 -0.60775244 0
2.9112766 -5.9711266 -0.56495821 0
3.4123645 -6.9536762 -0.51992714 0
4.042398 -8.2069683 -0.45261779 0
4.8313255 -9.7613945 -0.33336619 0
6.155961 -12.388477 -0.169976 0
8.4877663 -16.990791 0.10337731 0
8.890954 -17.711538 0.55611742 0
8.8924694 -17.625656 1.0170343 0
2.1335576 -4.1920867 -0.66188252 0
2.3866796 -4.6683545 -0.64170337 0
2.6696138 -5.1998749 -0.60708058 0
3.0518224 -5.9118376 -0.56929457 0
3.5630221 -6.8794494 -0.51908219 0
4.2281265 -8.1278553 -0.45171878 0
5.0571761 -9.6674042 -0.33231464 0
6.4519444 -12.284663 -0.17380923 0
8.8841276 -16.842316 0.10504384 0
9.4016676 -17.728523 0.56109846 0
9.4180479 -17.677759 1.0316647 0
2.238909 -4.1626883 -0.66652882 0
2.487184 -4.6089702 -0.64103663 0
2.7851591 -5.1355371 -0.60636568 0
3.1873753 -5.8525624 -0.56861866 0
3.7236426 -6.8102069 -0.52330494 0
4.4188471 -8.0487461 -0.45083293 0
5.2730784 -9.5583553 -0.33110866 0
6.7330112 -12.16081 -0.17242861 0
9.2904148 -16.708847 0.10655628 0
9.9769697 -17.850765 0.57002902 0
9.9635706 -17.744896 1.04615 0
2.3293502 -4.1132674 -0.66596186 0
2.5976226 -4.5646167 -0.64052725 0
2.9006789 -5.07619 -0.60569644 0
3.3229032 -5.7982755 -0.56798685 0
3.884249 -6.7459955 -0.52257192 0
4.6194706 -7.9896169 -0.4551442 0
5.5038614 -9.4743042 -0.33515707 0
7.0439067 -12.07705 -0.17147046 0
9.7414083 -16.645523 0.10735252 0
10.497771 -17.847702 0.57522726 0
10.534037 -17.827085 1.0604823 0
2.4297674 -4.0688782 -0.66546297 0
2.7030976 -4.5102348 -0.63991857 0
3.0261338 -5.0318718 -0.60518301 0
3.4683952 -5.7489729 -0.57242119 0
4.0399089 -6.6667514 -0.52169585 0
4.8201404 -7.9205151 -0.45436534 0
5.7495685 -9.4103355 -0.3344132 0
7.3498559 -11.978246 -0.17036268 0
10.202458 -16.567202 0.10827577 0
11.053442 -17.879778 0.58506346 0
11.13944 -17.929409 1.079596 0
2.5202005 -4.0194407 -0.66489899 0
2.808537 -4.4608002 -0.64435422 0
3.141664 -4.9675055 -0.60447156 0
3.1517107 -4.9625621 -0.60441029 0
3.1617575 -4.9576187 -0.60434902 0
2.8487358 -4.4360337 -0.64408112 0
2.8587804 -4.4310923 -0.64402378 0
2.8738053 -4.4311695 -0.64402092 0
2.8788891 -4.4162083 -0.64386559 0
2.8839643 -4.4062905 -0.63875401 0
2.8989584 -4.411324 -0.6437943 0
2.9040725 -4.3914061 -0.63859642 0
2.919086 -4.3914399 -0.64359331 0
2.9341116 -4.3915172 -0.6435895 0
2.6408784 -3.9301946 -0.6639241 0
11.034374 -16.415133 0.11006345 0
7.9667187 -11.780538 -0.17314625 0
6.2762389 -9.2324381 -0.33740965 0
5.2818375 -7.7224846 -0.45716843 0
4.4465923 -6.4586205 -0.52441263 0
3.8698578 -5.5858769 -0.58060169 0
3.3776581 -4.8487186 -0.60815191 0
3.3877041 -4.8437734 -0.60809076 0
3.0346925 -4.3121066 -0.64272356 0
3.0497177 -4.3121824 -0.64271951 0
3.0547998 -4.2972202 -0.64256585 0
3.437896 -4.8189883 -0.61282456 0
3.4479418 -4.814043 -0.61276352 0
3.4679489 -4.8191352 -0.61280978 0
3.468082 -4.7941952 -0.60755622 0
3.4781468 -4.7842498 -0.60745263 0
4.0105081 -5.5015702 -0.57967675 0
4.6523924 -6.3595109 -0.52832317 0
5.5579691 -7.573607 -0.46055588 0
6.6776414 -9.0589685 -0.34053591 0
8.5535507 -11.567623 -0.17581686 0
12.081443 -16.273684 0.11173289 0
13.555358 -18.193638 0.61741871 0
13.696183 -18.30372 1.1563499 0
13.756289 -18.298952 1.1614089 0
2.8919275 -3.806572 -0.6725477 0
3.2104871 -4.2130766 -0.64163816 0
3.6136522 -4.724894 -0.61179423 0
4.1611018 -5.4272442 -0.58386195 0
4.8280711 -6.2752886 -0.52740467 0
5.7638135 -7.4594526 -0.45934376 0
5.7789063 -7.4445152 -0.45918778 0
5.7939997 -7.4295774 -0.45903161 0
6.9986229 -8.9451427 -0.34429505 0
8.9598103 -11.414002 -0.1791651 0
8.9899187 -11.399106 -0.17900935 0
13.071541 -16.517031 0.10942118 0
14.575928 -18.347141 0.63601768 0
14.627212 -18.336918 1.1861657 0
3.0074992 -3.7322464 -0.67173648 0
3.3560395 -4.1437583 -0.65089047 0
3.7643154 -4.635612 -0.61583686 0
4.3418193 -5.3330421 -0.58785415 0
5.053822 -6.1811705 -0.53640342 0
5.0638909 -6.171217 -0.5362885 0
5.0839224 -6.1712999 -0.53627837 0
5.103992 -6.1613832 -0.53618443 0
5.1240244 -6.1614656 -0.53617311 0
4.4271574 -5.2884312 -0.58738291 0
3.8596961 -4.5860405 -0.62029874 0
3.4515362 -4.0742779 -0.65014553 0
3.4516251 -4.0593362 -0.6449852 0
3.1380165 -3.6679218 -0.6760422 0
15.720868 -18.401192 0.090575412 0
9.581851 -11.146094 -0.17634448 0
7.5353861 -8.7170181 -0.35187516 0
6.260705 -7.2013311 -0.46660832 0
5.3047109 -6.0671797 -0.54018235 0
5.3197608 -6.0622425 -0.54011869 0
5.334847 -6.0473061 -0.53997314 0
5.354897 -6.0423865 -0.53992081 0
5.3749361 -6.0374255 -0.54486835 0
6.3960743 -7.1568031 -0.47114459 0
7.7360301 -8.6327276 -0.35099408 0
5.4201384 -6.0076127 -0.5445565 0
4.0506015 -4.4569778 -0.61893928 0
3.2537436 -3.5586076 -0.67488277 0
19.043255 -20.847488 0.066012174 0
19.287714 -21.02331 0.064246863 0
19.447535 -21.098825 0.063485354 0
19.672066 -21.254572 0.061931759 0
19.881725 -21.375263 0.060698837 0
19.981747 -21.395565 0.060510784 0
10.278611 -10.938266 -0.18416587 0
10.318698 -10.928395 -0.1840713 0
10.348803 -10.913487 -0.1839155 0
10.383888 -10.903598 -0.18381071 0
10.413992 -10.88869 -0.1836549 0
10.45906 -10.883835 -0.18361101 0
8.1524277 -8.4340715 -0.35894492 0
6.777401 -6.9731741 -0.47423145 0
5.706295 -5.8387232 -0.54780257 0
4.2515392 -4.3178954 -0.6224879 0
3.4294651 -3.4594595 -0.68383932 0
8.2929554 -8.3545389 -0.35813233 0
5.7965784 -5.7990332 -0.55239785 0
4.3117752 -4.2831316 -0.62712741 0
3.4647112 -3.419667 -0.68342471 0
8.4233408 -8.2999287 -0.36257824 0
5.8818879 -5.7543621 -0.55194318 0
5.0696855 -4.931067 -0.60364962 0
3.9135997 -3.7815077 -0.66206217 0
25.71838 -24.875835 0.85544991 0
13.094692 -12.595493 0.14917372 0
13.149765 -12.590656 0.1492165 0
13.150819 -12.544052 0.57471502 0
8.6341372 -8.1756077 -0.36132374 0
6.002543 -5.6448331 -0.55082691 0
4.4774704 -4.1788425 -0.63105857 0
3.5903237 -3.3252926 -0.68746006 0
8.7744989 -8.1260176 -0.36583003 0
6.0878372 -5.6001129 -0.55537355 0
4.5327282 -4.1390929 -0.63065004 0
3.6255646 -3.2854943 -0.68704951 0
11.571949 -10.492051 -0.19469249 0
7.3546424 -6.62008 -0.48566821 0
6.188211 -5.5404458 -0.55977964 0
5.3308396 -4.7470689 -0.61177766 0
5.3708215 -4.7571731 -0.61688995 0
4.6281304 -4.0744724 -0.63500535 0
4.1296616 -3.6125238 -0.66535056 0
11.907568 -10.422991 -0.19902244 0
7.5251732 -6.5406127 -0.48987255 0
5.4412003 -4.6924615 -0.61624014 0
4.1698966 -3.5726888 -0.66993594 0
12.122979 -10.37361 -0.19856244 0
7.630559 -6.4759607 -0.4892554 0
6.3890886 -5.3911424 -0.56330705 0
5.5265322 -4.6377568 -0.62070084 0
4.225194 -3.5229559 -0.66943872 0
26.938364 -22.475639 0.049154967 0
12.393643 -10.274322 -0.20261773 0
9.4516363 -7.7879725 -0.37752095 0
6.5094981 -5.3265314 -0.56766438 0
5.6219296 -4.5731282 -0.62005818 0
4.8490748 -3.9203484 -0.64346611 0
4.3055782 -3.4583335 -0.66880548 0
3.8667777 -3.086668 -0.69505322 0
3.8568709 -3.0666919 -0.6898489 0
3.8968289 -3.0818019 -0.69501126 0
25.907066 -20.582449 0.83804142 0
12.849579 -10.135586 -0.20635861 0
9.7474871 -7.643847 -0.38116392 0
8.0119076 -6.2421494 -0.4970037 0
6.7052422 -5.1922178 -0.57138824 0
5.7925639 -4.4587388 -0.62897086 0
5.7926612 -4.4387884 -0.62377393 0
5.8027325 -4.4238319 -0.62363434 0
5.0047612 -3.796011 -0.64726973 0
5.0148139 -3.7860572 -0.6471746 0
5.0198832 -3.7710872 -0.64703155 0
5.0399098 -3.7661266 -0.65199339 0
4.4813042 -3.3290968 -0.67756569 0
4.4763713 -3.314096 -0.67740834 0
4.491406 -3.3091602 -0.67736506 0
4.5064569 -3.2992244 -0.67728329 0
4.5164819 -3.2942331 -0.68223095 0
4.5265331 -3.2842808 -0.68214011 0
4.0576639 -2.9275932 -0.70351887 0
4.0627136 -2.9176264 -0.70342207 0
27.300238 -19.669577 0.07632947 0
27.435293 -19.674942 0.076224521 0
27.545401 -19.665226 0.07628049 0
14.799319 -10.491138 -0.25047937 0
10.359355 -7.2956171 -0.38799599 0
7.051621 -4.928401 -0.57892549 0
5.2157011 -3.6168616 -0.65558577 0
4.6320133 -3.1947465 -0.68628871 0
43.418606 -30.087202 6.1350751 0
43.903198 -30.279037 6.1930299 0
16.402323 -11.200735 -0.29794428 0
16.627039 -11.30138 -0.30400303 0
10.610039 -7.1662726 -0.39683822 0
10.655086 -7.161407 -0.39681289 0
18.054562 -12.1005 -0.35226896 0
18.214441 -12.150933 -0.35781965 0
18.334425 -12.171275 -0.35806844 0
10.800328 -7.1217952 -0.40149364 0
18.664186 -12.272168 -0.36918172 0
10.875454 -7.1020141 -0.40133908 0
18.849276 -12.272639 -0.37427804 0
44.203983 -28.792524 6.1420393 0
4.2637029 -2.7285883 -0.71164846 0
4.2837191 -2.7286673 -0.71165562 0
4.273798 -2.7086523 -0.71145916 0
27.094839 -17.237143 0.09962438 0
44.325638 -28.205601 8.6126518 0
4.3039098 -2.6887949 -0.71127748 0
44.196838 -27.854502 8.5710373 0
4.3040204 -2.6638277 -0.71103406 0
44.734066 -27.926115 9.9198732 0
4.8630967 -2.9807453 -0.69431889 0
4.3441219 -2.6439631 -0.71587062 0
4.3441777 -2.6340165 -0.71076834 0
4.3542004 -2.6290259 -0.71572053 0
44.70652 -27.229523 9.8514357 0
4.8883538 -2.9258933 -0.69379771 0
5.5622115 -3.3131719 -0.67281115 0
7.5587053 -4.5000029 -0.59504056 0
7.5438294 -4.4699988 -0.58974576 0
7.5788584 -4.4650731 -0.59472358 0
9.1961203 -5.400599 -0.52939153 0
11.552154 -6.7637491 -0.41847757 0
9.2562313 -5.3807788 -0.52923763 0
11.632281 -6.7389355 -0.42329475 0
22.922312 -13.248538 -0.4756501 0
23.037355 -13.248802 -0.48071727 0
23.167377 -13.259148 -0.48088387 0
23.262476 -13.244386 -0.48080501 0
51.696644 -29.350595 1.3523357 0
11.817758 -6.6393948 -0.42746767 0
7.724607 -4.300559 -0.59325385 0
6.6264515 -3.6667545 -0.65169072 0
5.7329988 -3.1488361 -0.67633557 0
5.7480383 -3.1388559 -0.68125379 0
5.7580867 -3.1288972 -0.68116355 0
5.7631497 -3.1139231 -0.68102849 0
6.696723 -3.6069682 -0.65617514 0
9.5723066 -5.1466231 -0.53723061 0
12.123453 -6.4951701 -0.43131414 0
12.15352 -6.4802113 -0.43618777 0
7.8852143 -4.1660023 -0.60208809 0
5.8334274 -3.054162 -0.68550682 0
5.1445537 -2.6719279 -0.70653796 0
12.343882 -6.4056783 -0.44062313 0
6.8072333 -3.4923279 -0.66017532 0
4.6205564 -2.3452375 -0.72817504 0
9.8130827 -4.9722285 -0.54576838 0
6.8674431 -3.4475348 -0.65979683 0
5.2049279 -2.5871761 -0.7107842 0
26.984222 -13.45359 0.13486275 0
9.9384165 -4.897542 -0.55016756 0
6.9277215 -3.3827107 -0.6642375 0
5.2601323 -2.5423675 -0.71540427 0
27.185314 -13.17384 0.13725254 0
10.033793 -4.8077631 -0.55441034 0
6.9830208 -3.312906 -0.66363573 0
5.3103495 -2.4925427 -0.71998119 0
27.091797 -12.75822 0.14108056 0
10.154137 -4.728054 -0.55877006 0
7.0482945 -3.2480929 -0.66808987 0
6.0746346 -2.7800472 -0.69312882 0
5.3606176 -2.4327645 -0.71946049 0
4.7764239 -2.1509359 -0.73647606 0
27.31333 -12.353379 0.14456719 0
8.3620987 -3.7273273 -0.61839104 0
5.4258089 -2.3879445 -0.72910154 0
10.369873 -4.548552 -0.56731272 0
7.1688581 -3.113467 -0.67195356 0
5.446022 -2.3380868 -0.72366524 0
31.384077 -13.518882 -0.66412151 0
10.470244 -4.4588099 -0.56657767 0
7.2291393 -3.0436332 -0.67637241 0
4.871954 -2.0263286 -0.74540973 0
8.5578346 -3.5478308 -0.6269201 0
5.5213547 -2.2583284 -0.73299468 0
13.961986 -5.7043285 -0.49047944 0
8.6081028 -3.477941 -0.63133943 0
6.2857428 -2.5107558 -0.70585597 0
4.9372697 -1.9515928 -0.74978518 0
14.122437 -5.5896516 -0.49459568 0
8.6984015 -3.4031634 -0.63574815 0
6.3260045 -2.4459147 -0.70530879 0
4.93753 -1.8866991 -0.74420643 0
14.497655 -5.5505023 -0.50957537 0
8.7737198 -3.3233757 -0.63510048 0
6.3712564 -2.3810515 -0.70977306 0
14.96764 -5.581593 -0.53025329 0
7.4703221 -2.7443199 -0.6889019 0
5.6471996 -2.0488594 -0.73622954 0
33.104549 -12.056431 -0.67774475 0
11.127064 -3.995224 -0.59803498 0
7.5305991 -2.6745112 -0.68833578 0
5.6924148 -1.9940081 -0.74078405 0
33.440609 -11.761897 -0.68050277 0
11.252408 -3.9054925 -0.60235739 0
7.5908794 -2.5996659 -0.69273877 0
5.7276354 -1.9391617 -0.74032629 0
33.921543 -11.507752 -0.68377197 0
11.382776 -3.8057709 -0.60662162 0
6.5271444 -2.1515682 -0.71788573 0
16.753227 -5.4955201 -0.61114144 0
7.686327 -2.4799275 -0.69678831 0
5.1385455 -1.6324754 -0.76213217 0
9.1802845 -2.9043081 -0.65682244 0
5.8081317 -1.8094698 -0.74427104 0
11.668456 -3.6213479 -0.62029922 0
6.6026597 -2.0118213 -0.72175372 0
18.313198 -5.563971 -0.68322229 0
9.2857332 -2.7795484 -0.66085649 0
6.632864 -1.956935 -0.72131121 0
5.2039995 -1.5127652 -0.76616085 0
18.98835 -5.5404105 -0.71368849 0
9.3310709 -2.6846607 -0.66008854 0
6.6780987 -1.8920617 -0.72579813 0
5.2342072 -1.457912 -0.76572144 0
19.52865 -5.466537 -0.73360729 0
9.4363623 -2.599864 -0.66948128 0
6.7133517 -1.8221943 -0.72523987 0
5.2993584 -1.4180834 -0.7754364 0
20.053995 -5.3725724 -0.7583617 0
9.5166721 -2.5100315 -0.67380595 0
44.799397 -11.887587 11.11258 0
5.9691515 -1.5300461 -0.757043 0
27.764933 -7.1346703 -0.47587058 0
9.5869932 -2.4151702 -0.67808747 0
5.9993243 -1.4801338 -0.76165652 0
12.450399 -3.0578454 -0.65636146 0
6.82898 -1.6425296 -0.73385155 0
21.734608 -5.215982 -0.83381176 0
8.093379 -1.8959377 -0.72225523 0
5.3750219 -1.2334538 -0.77896428 0
9.727643 -2.2204742 -0.68162942 0
6.0447812 -1.3503554 -0.76062226 0
12.721147 -2.8283153 -0.66976368 0
6.9044719 -1.4977641 -0.73773718 0
5.4202852 -1.158626 -0.78338647 0
32.926582 -7.086041 0.18404916 0
23.605345 -5.004715 -0.91411126 0
9.8632078 -2.0457265 -0.69034839 0
6.1501322 -1.2456201 -0.77487433 0
13.016788 -2.6238258 -0.68843508 0
6.9748898 -1.3729832 -0.74179173 0
24.580927 -4.8165898 -0.95870781 0
8.3044081 -1.5814469 -0.73492634 0
7.0150785 -1.3130896 -0.74636269 0
5.5007892 -1.008945 -0.79226255 0
5.5108171 -0.99895215 -0.79719257 0
25.991167 -4.7394476 -1.0246978 0
10.064013 -1.7861303 -0.70351315 0
8.3847857 -1.4616512 -0.7390691 0
7.0703988 -1.2132602 -0.75062811 0
49.358089 -8.6143665 10.798738 0
6.275795 -1.0410312 -0.7883811 0
45.984104 -7.8108134 10.073812 0
7.1005907 -1.1533713 -0.75019169 0
8.4401073 -1.3567853 -0.74330866 0
14.433167 -2.3187697 -0.43764004 0
14.524146 -2.308336 0.24236059 0
14.385199 -2.2673223 0.92287076 0
14.410283 -2.23736 0.92307115 0
14.415369 -2.2073481 0.92329884 0
14.415466 -2.1723239 0.92356491 0
14.425551 -2.1423242 0.92378509 0
14.48563 -2.1174798 0.92890441 0
36.233784 -5.3004107 12.559511 0
29.862621 -4.222002 -1.1952131 0
10.375111 -1.4167206 -0.72600603 0
7.2161832 -0.9586755 -0.7638129 0
7.2112422 -0.93867218 -0.76365685 0
7.2262769 -0.92871749 -0.76359212 0
48.586922 -6.3698015 9.4017086 0
6.3915954 -0.78647417 -0.79653132 0
48.390942 -6.10607 8.184001 0
8.6361179 -1.0172226 -0.76092219 0
7.2665586 -0.83383524 -0.76791716 0
5.6919947 -0.62970728 -0.81451702 0
40.827736 -4.6839647 6.9435849 0
48.189537 -5.4097786 5.8393569 0
14.339968 -1.5260807 -0.76151037 0
14.390051 -1.4961873 -0.76135087 0
10.631094 -1.072184 -0.74369848 0
14.445212 -1.43626 -0.76597226 0
14.470283 -1.4113057 -0.76581132 0
10.671292 -1.002273 -0.74322832 0
8.7567511 -0.79749751 -0.76941144 0
10.706401 -0.96232063 -0.74796855 0
32.601082 -2.9163888 -1.3087604 0
10.751528 -0.91742295 -0.74769163 0
39.445583 -3.4313681 10.56951 0
14.825805 -1.2118945 -0.78977203 0
40.150059 -3.3428178 13.814399 0
48.314579 -3.815804 -0.93433678 0
32.652187 -2.4910619 -1.3107126 0
8.8472223 -0.62768304 -0.77826452 0
5.8277221 -0.38517994 -0.83283865 0
15.176342 -1.0024574 -0.81367183 0
10.902145 -0.68765682 -0.76118922 0
10.932206 -0.66269362 -0.76604736 0
32.768494 -1.9808496 -1.3071833 0
33.509502 -1.9721183 -0.55799067 0
48.540863 -2.8417962 5.8726234 0
6.5429244 -0.33710134 -0.80834794 0
10.987464 -0.56780952 -0.7654283 0
49.024158 -2.5778799 0.19872932 0
43.183769 -2.2483859 14.813586 0
32.774582 -1.5504434 -1.3041112 0
44.85672 -2.0691712 1.2524787 0
6.5731192 -0.26719618 -0.81287456 0
41.756241 -1.868507 12.197948 0
47.205673 -1.9530092 0.20538181 0
43.746346 -1.7647144 4.2960882 0
6.5782399 -0.22221038 -0.81755769 0
6.5832825 -0.20723297 -0.8174566 0
43.376129 -1.552735 11.573169 0
32.910843 -1.0402384 -1.3056822 0
47.093296 -1.4437573 1.3041356 0
42.842503 -1.3012468 8.2904844 0
9.058322 -0.21811967 -0.79556823 0
33.006355 -0.83021504 -1.3093222 0
44.410564 -1.1283076 6.4597979 0
6.6135149 -0.12233772 -0.8218838 0
16.687973 -0.32493666 -0.9157027 0
45.463497 -0.92332453 4.4548612 0
5.8786101 -0.07555829 -0.84065187 0
7.5786324 -0.094724692 -0.79787421 0
11.30857 -0.13329849 -0.79273701 0
17.108303 -0.18066061 -0.94021726 0
33.64254 -0.32598796 -1.336607 0
33.592735 -0.24583247 -1.3309977 0
48.201 -0.30497199 1.3356656 0
9.1688833 0.0016883388 -0.80915999 0
9.1889353 0.021640366 -0.80904531 0
11.443985 0.03651597 -0.80671799 0
17.833897 0.088185862 -0.99425888 0
17.853983 0.1231647 -0.99403989 0
47.392418 0.32777864 1.3209867 0
18.519129 0.20698705 -1.0392876 0
45.327484 0.48198929 13.219826 0
45.342697 0.5821231 13.225484 0
19.359386 0.34554195 -1.0993855 0
19.48448 0.39035019 -1.1092362 0
50.25267 1.0387064 0.22222099 0
9.2844963 0.2464591 -0.81761563 0
45.381012 1.1112888 10.983935 0
11.674751 0.35617819 -0.82482636 0
9.3096409 0.30642602 -0.82223678 0
45.911819 1.4299297 11.110409 0
11.759921 0.43106484 -0.83442211 0
11.744987 0.45607397 -0.8292352 0
7.7297239 0.33489895 -0.82009757 0
48.985977 1.9885571 9.4652777 0
45.65881 1.9713267 7.7442894 0
20.230814 0.98937941 -1.1561534 0
20.28092 1.0393295 -1.1608875 0
62.349045 3.2511513 -2.6880846 0
11.86048 0.67095387 -0.84294593 0
7.7700567 0.4697822 -0.82423902 0
6.7549543 0.43209916 -0.8432405 0
39.539097 2.3947592 15.709717 0
9.465456 0.65116918 -0.84013045 0
6.7601051 0.49204582 -0.84284818 0
63.926903 4.6196208 -2.7611475 0
9.5006514 0.7361151 -0.84461582 0
7.8254356 0.62965643 -0.83325219 0
6.0101414 0.50871801 -0.86181343 0
47.493935 3.9484012 0.24465969 0
12.176365 1.0705332 -0.87072873 0
7.8656554 0.72456408 -0.83768666 0
6.0053058 0.57366341 -0.86138105 0
9.5911045 0.93596464 -0.85343373 0
6.8005838 0.69188076 -0.85159206 0
6.0104356 0.62862909 -0.86603129 0
12.291859 1.300428 -0.8844018 0
9.6313429 1.0459293 -0.86277997 0
50.307949 5.4047098 9.7806015 0
12.377115 1.4203054 -0.88874865 0
6.0506663 0.72851032 -0.87544012 0
12.437298 1.5102578 -0.89825737 0
7.9212728 0.99440098 -0.84603083 0
43.858158 5.4925847 1.2837462 0
12.517555 1.6351769 -0.90757835 0
6.0258899 0.81844306 -0.86983895 0
6.035954 0.84842402 -0.87466371 0
9.7620821 1.3907508 -0.88078105 0
47.42828 6.7179861 8.132122 0
12.653042 1.8750435 -0.92126226 0
9.7872791 1.4857227 -0.88522983 0
47.090164 7.0830717 9.2346964 0
7.9918733 1.2742665 -0.86438179 0
14.944298 2.4146888 -0.78570569 0
14.934369 2.4497252 -0.78548491 0
12.808549 2.1298749 -0.93490446 0
6.8766809 1.176515 -0.86864841 0
14.779968 2.5531154 -0.424678 0
14.71963 2.5751548 -0.76948154 0
14.755085 2.6132007 -0.42429104 0
14.855563 2.6610932 -0.074117422 0
14.851001 2.6892009 0.27606145 0
6.0615835 1.1281679 -0.88297772 0
8.0523434 1.4991205 -0.87309515 0
14.674952 2.7403209 -0.76845634 0
14.936218 2.8040981 0.27664012 0
14.958194 2.824348 2.0567682 0
6.8970175 1.3364266 -0.87771165 0
14.710147 2.8453245 -0.77288067 0
14.909057 2.8756127 2.7721379 0
14.879892 2.8966892 3.5022957 0
13.089441 2.5996263 -0.9674567 0
13.114503 2.634613 -0.97228205 0
13.12456 2.6646023 -0.97211862 0
6.8972239 1.4363917 -0.88212383 0
9.9935102 2.1054804 -0.91678143 0
13.209874 2.8345346 -0.98123586 0
13.255012 2.9094925 -0.98585904 0
6.8974528 1.5463192 -0.8814832 0
6.9025192 1.5813158 -0.88628793 0
13.355321 3.0844259 -0.99997759 0
6.8926105 1.6263041 -0.8860184 0
46.847775 11.018449 10.517717 0
8.1283045 1.988945 -0.89534485 0
8.1433678 2.0239298 -0.90016258 0
8.1434441 2.0639169 -0.89993906 0
8.1435204 2.1039038 -0.89971638 0
8.1435909 2.1439176 -0.90449476 0
10.174625 2.7153096 -0.94854498 0
10.189711 2.7653074 -0.95328689 0
10.199809 2.8202879 -0.95299852 0
10.209893 2.870295 -0.95773768 0
10.194972 2.9153209 -0.95747972 0
10.240085 2.9802561 -0.962183 0
10.240159 3.025275 -0.96694613 0
10.250257 3.0802491 -0.96666861 0
10.275348 3.135222 -0.97140729 0
30.396544 9.3545303 -1.1892034 0
6.9286485 2.181025 -0.91302013 0
10.280567 3.2652209 -0.97574055 0
30.262039 9.6800146 -1.1824226 0
6.9437995 2.2659597 -0.91759479 0
10.310788 3.4001999 -0.9850806 0
30.297609 10.060266 -1.1905501 0
6.9389477 2.35093 -0.92215466 0
10.381032 3.5501072 -0.99439108 0
30.488279 10.505264 -1.2035209 0
6.9390984 2.4358659 -0.92172468 0
6.9341545 2.4708743 -0.92654419 0
30.988403 11.073653 -1.9961996 0
8.180027 2.9686785 -0.93522978 0
10.38144 3.8101487 -1.0081023 0
14.248916 5.2839355 -1.1243932 0
6.9193826 2.6058226 -0.93086088 0
8.1552448 3.1036818 -0.93954456 0
8.1653137 3.1486707 -0.9443351 0
68.148727 26.365078 -3.0602193 0
6.0139637 2.3723302 -0.93618393 0
6.024024 2.4072819 -0.93602347 0
8.1505327 3.288655 -0.94865 0
14.404754 5.8589387 -1.1567873 0
6.0041423 2.4772387 -0.93567014 0
6.9248405 2.8906808 -0.94449329 0
8.1257381 3.4236557 -0.95299232 0
8.1358118 3.4736438 -0.95776665 0
8.1358728 3.5136247 -0.95758152 0
8.1259327 3.5536222 -0.95738828 0
8.1209879 3.5936356 -0.96220052 0
10.472722 4.680109 -1.0490785 0
14.60577 6.5939441 -1.1985767 0
14.650899 6.6889081 -1.2031868 0
14.70603 6.7888803 -1.2127835 0
14.716141 6.8739033 -1.2174138 0
14.756275 6.9738765 -1.2220012 0
14.796404 7.0738745 -1.2315907 0
5.9247551 2.8720441 -0.95378399 0
6.8154969 3.3305809 -0.95739901 0
8.0715361 3.9836044 -0.97541797 0
8.0515833 4.0186172 -0.97525132 0
8.0566502 4.0686126 -0.98003674 0
8.0517044 4.1086006 -0.97986174 0
8.0417576 4.1485972 -0.97968328 0
8.046814 4.1935921 -0.98449576 0
8.0318661 4.2335958 -0.98431516 0
8.0219193 4.273592 -0.98413992 0
8.0219746 4.3185949 -0.98895097 0
8.0220299 4.3635979 -0.99376309 0
8.0220957 4.4135776 -0.9935534 0
10.369089 5.7503467 -1.0893929 0
10.364159 5.81037 -1.0941433 0
10.334208 5.8554082 -1.0939428 0
10.329273 5.910408 -1.0937188 0
10.329341 5.9704227 -1.0984775 0
10.339416 6.0354218 -1.1032233 0
10.30947 6.0854588 -1.1030059 0
10.304532 6.1404586 -1.1027875 0
15.494083 9.3088579 -1.3777683 0
15.529218 9.4288683 -1.3873138 0
5.6855917 3.4867573 -0.96604931 0
7.8826327 4.8736224 -1.0066289 0
7.8676696 4.9086237 -1.006488 0
7.8477101 4.9486542 -1.011322 0
15.554677 9.8740234 -1.4106171 0
5.620738 3.6067033 -0.96554637 0
7.8178196 5.048645 -1.0109273 0
15.52489 10.094134 -1.41478 0
54.461246 35.652843 -2.6429889 0
6.4967127 4.3054137 -0.98823166 0
7.787981 5.2036567 -1.0203297 0
15.595288 10.489204 -1.4383394 0
5.5209017 3.7516456 -0.9649539 0
7.7580867 5.3086667 -1.0249292 0
30.36009 20.862883 -1.3698572 0
7.7381496 5.3736839 -1.0296819 0
5.4809866 3.8316219 -0.96964216 0
10.055448 7.0658221 -1.1341999 0
5.4560223 3.8666053 -0.96950662 0
10.04553 7.1558428 -1.138876 0
6.3970079 4.5903516 -0.99714768 0
27.204638 19.572168 1.1212809 0
7.6483274 5.5636988 -1.0289726 0
25.077114 18.303642 0.33724704 0
9.9856968 7.3509326 -1.1481692 0
56.52562 41.705238 8.6180315 0
9.9707813 7.4459581 -1.1528319 0
24.852821 18.641193 1.0584426 0
7.5684757 5.7387481 -1.0383403 0
26.850147 20.413328 1.1292247 0
9.9309254 7.6210222 -1.1622226 0
5.3112655 4.1114945 -0.97359443 0
7.5235753 5.8587604 -1.0429224 0
25.008614 19.556376 1.0765219 0
5.2763271 4.1764526 -0.97336543 0
6.1723013 4.9253345 -1.0009278 0
26.689663 21.365711 -0.44757655 0
5.2363796 4.2364168 -0.97315776 0
23.592096 19.136702 0.34019628 0
5.2064157 4.276403 -0.97301447 0
24.962729 20.541193 -1.1602433 0
23.858698 19.770653 1.7872425 0
24.123056 20.101261 0.34331793 0
6.0774574 5.1203141 -1.0102682 0
25.452381 21.448851 4.2326694 0
23.453058 19.884407 1.0575918 0
24.221975 20.675379 -1.8798366 0
6.0225077 5.1903067 -1.0100374 0
23.720108 20.455343 3.2644162 0
25.524134 22.166203 -1.2250445 0
9.6214828 8.4163771 -1.1895925 0
14.952248 13.125977 -1.5343403 0
14.892221 13.12604 -1.529351 0
9.5765257 8.491415 -1.189358 0
5.9275675 5.2902999 -1.0097225 0
5.9225841 5.3102899 -1.0096586 0
5.9075885 5.3202925 -1.0096281 0
7.1539898 6.4638972 -1.0559324 0
9.5115986 8.6214828 -1.1939609 0
14.477075 13.166509 -1.5042763 0
28.217844 25.739058 -1.4186642 0
14.377053 13.196625 -1.4991962 0
23.203403 21.333385 0.34705582 0
23.006802 21.27232 -1.8431604 0
22.93322 21.278807 0.34684351 0
19.365768 18.018559 2.8063025 0
21.544878 20.106588 5.1830153 0
21.934971 20.563585 4.5694633 0
5.7776704 5.4652739 -1.00919 0
9.366725 8.8766298 -1.2032038 0
9.3567476 8.9066305 -1.2031171 0
6.9891186 6.6939425 -1.060248 0
6.9691248 6.7039304 -1.0552235 0
6.9591336 6.7189255 -1.0551862 0
13.751867 13.302276 -1.4640344 0
13.701864 13.317314 -1.4590013 0
26.166702 25.516838 -1.3448368 0
21.165627 20.744358 -1.7251942 0
22.19776 21.8179 -0.37179253 0
18.846264 18.567278 3.4277527 0
21.195261 20.952522 5.240366 0
6.8491936 6.8239374 -1.0549049 0
21.01572 20.964605 -1.7296188 0
22.583965 22.58976 0.35054284 0
18.711325 18.762571 3.433259 0
20.715384 20.840807 5.8799686 0
13.226737 13.382753 -1.4339683 0
20.810743 21.124897 -1.729249 0
18.900183 19.241884 0.9647001 0
18.805515 19.219618 1.5945919 0
18.170908 18.628609 3.3776708 0
20.053886 20.642591 4.3890605 0
4.7419043 4.9260144 -0.9910444 0
12.971706 13.477988 -1.4238011 0
8.997014 9.3968306 -1.2118227 0
6.6843085 7.0239406 -1.0593878 0
12.831672 13.5081 -1.4137793 0
12.786658 13.518147 -1.4137735 0
12.731643 13.523187 -1.4087806 0
23.226242 24.711447 1.1417065 0
18.385191 19.647738 0.9655925 0
18.159971 19.498037 0.9600817 0
21.218477 22.891821 0.35079294 0
19.378666 20.949009 4.3545952 0
6.5593653 7.1439414 -1.0591027 0
19.325033 21.066519 -1.6550729 0
18.21027 19.903046 0.9662019 0
18.672472 20.457836 3.5779085 0
18.503082 20.343302 4.8625026 0
12.261465 13.553582 -1.3839256 0
19.886786 22.046053 -0.34216246 0
18.963058 21.057339 3.6546686 0
19.644482 21.908552 4.4823084 0
6.4544058 7.2439337 -1.0588852 0
19.581184 22.00898 -1.027423 0
19.248245 21.679356 3.0514913 0
19.124809 21.59445 5.7812724 0
12.011411 13.633789 -1.3738471 0
17.654711 20.09116 0.34140104 0
18.388033 20.97599 4.2641368 0
6.3644314 7.3139429 -1.0587331 0
19.281523 22.14184 -0.33226338 0
18.027248 20.749069 3.553324 0
4.4870834 5.2057672 -0.99537313 0
18.35471 21.297598 -1.6200032 0
18.732191 21.785154 1.6864702 0
18.22349 21.248911 4.9447422 0
8.5022421 9.9720707 -1.2205056 0
18.58556 21.840073 -0.98846722 0
18.015654 21.250885 0.3446427 0
17.796915 21.056856 2.9139879 0
18.13821 21.531511 4.3004117 0
19.235743 22.91921 5.9897866 0
19.300909 23.104065 6.0253072 0
6.1844707 7.4589357 -1.0584605 0
5.0830607 6.1599526 -1.0125158 0
8.342289 10.142148 -1.2251636 0
17.605532 21.436457 0.3448481 0
18.304224 22.323751 5.0925441 0
19.120974 23.41946 6.0459933 0
8.277297 10.197174 -1.2250684 0
17.475529 21.561647 0.34506613 0
16.341125 20.204922 3.9908166 0
6.0694952 7.5539269 -1.0582888 0
17.785711 22.168682 -0.3131651 0
18.860901 23.62501 6.0463166 0
4.9481077 6.2798843 -1.0122845 0
4.1971622 5.4055367 -0.99001598 0
18.48077 23.895805 6.0416903 0
4.1571813 5.4505029 -0.99493122 0
17.985857 24.014301 6.7315774 0
3.1472142 6.084528 -0.99445593 0
3.6480863 7.1241145 -1.0166132 0
4.3593292 8.6135683 -1.0525392 0
3.0672045 6.1294413 -0.99446082 0
4.299304 8.6335487 -1.0525806 0
11.782171 23.706751 -0.89113688 0
3.513051 7.1790156 -1.0116681 0
5.5715437 11.422756 -1.1750712 0
4.1792512 8.6684942 -1.0476825 0
14.247033 29.633261 -0.40553972 0
4.1392355 8.6834803 -1.0477074 0
11.146314 23.46394 -1.472555 0
3.3980136 7.2239351 -1.0117341 0
6.7638721 14.411612 -1.1672809 0
12.42157 26.623581 5.1756082 0
5.3164043 11.472747 -1.1653355 0
2.8471591 6.2342043 -0.99453735 0
3.9891865 8.7634115 -1.0477604 0
6.5237017 14.40167 -1.1576518 0
10.966803 24.312359 -0.90113783 0
11.011941 24.552343 -0.91059613 0
11.03884 24.674706 3.4996326 0
11.646253 26.140835 6.4335833 0
10.851787 24.487444 -0.90597117 0
10.8937 24.649891 3.4893639 0
3.8591244 8.7933702 -1.0478843 0
10.260629 23.44944 -1.4489346 0
10.493054 24.030489 3.4025142 0
3.1729383 7.3187594 -1.011871 0
4.961184 11.50274 -1.1558044 0
10.065472 23.429531 -1.4392791 0
10.307658 24.067436 2.7823138 0
11.160784 26.1516 6.3928528 0
6.1384563 14.471737 -1.1481137 0
9.9124756 23.389606 3.9103212 0
3.7240682 8.8482914 -1.0429863 0
6.038362 14.416748 -1.1383771 0
10.381589 24.907766 -0.91589153 0
10.131669 24.42444 0.34273514 0
10.618906 25.695034 3.5909586 0
2.5820692 6.3089037 -0.98477232 0
3.0078766 7.3786135 -1.007004 0
10.464908 25.767794 6.2609611 0
2.9778676 7.3985987 -1.0120108 0
9.1745338 22.874914 -1.3818105 0
9.4405413 23.671587 -0.24983898 0
9.4269171 23.696787 3.3201241 0
9.6381931 24.361258 5.2768736 0
10.410959 26.426895 8.4921122 0
9.55618 24.414864 0.34177229 0
8.9964638 23.060795 3.8181789 0
2.8678174 7.4185095 -1.0071375 0
8.7440977 22.665102 -1.3629426 0
9.5122108 24.728178 2.8122611 0
2.4320228 6.3737173 -0.98488247 0
4.3958282 11.572658 -1.1365777 0
9.7814894 25.858168 -0.94506264 0
10.704373 28.425167 1.766385 0
2.3870056 6.3886819 -0.9899205 0
2.7777886 7.4734297 -1.0121802 0
4.2857542 11.582629 -1.1317495 0
10.478634 28.41415 0.35098007 0
8.7968836 23.944189 4.5295196 0
4.2307191 11.592622 -1.1318226 0
10.293178 28.326153 -0.34949496 0
8.6917887 23.974304 4.5293808 0
2.6777279 7.4633412 -1.0023599 0
4.140656 11.592614 -1.1319717 0
7.983387 22.445381 -1.3296871 0
8.9255295 25.273581 -0.90767288 0
9.2018499 26.208366 0.9895637 0
7.9254708 22.645611 4.2755213 0
2.5976934 7.4882622 -1.002455 0
3.0987504 8.997963 -1.0337101 0
7.648088 22.290474 -1.3105711 0
8.5504112 25.082109 -0.27371362 0
7.794919 22.965136 2.5959103 0
8.3956766 24.944004 0.9507165 0
8.9132318 26.578249 4.9496522 0
2.9987116 9.0178947 -1.0338567 0
3.8254669 11.577511 -1.1175665 0
4.7975807 14.62182 -1.1201028 0
7.969717 24.432384 -0.25599685 0
8.4370928 25.95731 3.5276432 0
2.0819108 6.4632735 -0.98029435 0
3.7104113 11.58247 -1.1127571 0
3.6853998 11.587461 -1.1127967 0
7.0226612 22.220633 -1.2968494 0
7.8498983 24.992434 -0.27018639 0
8.0911398 25.897478 1.6069031 0
2.0068955 6.4831777 -0.98038197 0
2.3276212 7.5629892 -1.0027854 0
4.4824123 14.646797 -1.1156305 0
7.7352214 25.395908 0.34033042 0
6.9645219 22.994358 3.1394131 0
2.267596 7.5579295 -0.99789548 0
6.6273785 22.15571 -1.2827193 0
7.494976 25.221039 0.3395603 0
7.7658906 26.314251 0.97706938 0
7.6269102 25.949821 4.7860756 0
7.8722129 27.062548 3.6336203 0
1.8768692 6.5229988 -0.98053694 0
2.1675622 7.5778213 -0.99804676 0
2.5935845 9.1426029 -1.0343494 0
2.5635588 9.1175814 -1.0294493 0
7.1060486 25.457052 4.0541863 0
6.2437639 22.565046 3.0672247 0
6.2689214 22.849958 3.0977919 0
6.8641915 25.354317 -0.88641953 0
2.0325284 7.6226745 -0.9982084 0
3.8320529 14.696692 -1.1017883 0
6.0590129 23.741262 2.619004 0
1.9124869 7.6425319 -0.99340045 0
1.8674771 7.6674824 -0.99844766 0
2.1734009 9.1872673 -1.0250745 0
-1.4086401 8.6479578 -0.93903589 0
-1.8280687 10.652987 -0.97158194 0
-1.8981043 10.617893 -0.96679819 0
-1.3390877 7.2976108 -0.9311862 0
-1.6187149 8.6176319 -0.93957949 0
-2.038162 10.597718 -0.9671669 0
-1.6937473 8.587513 -0.93980014 0
-4.6691222 23.343386 3.0884371 0
-2.1532147 10.562572 -0.96749496 0
-1.768775 8.5723925 -0.94000149 0
-1.3293914 6.3722305 -0.93774307 0
-1.3443942 6.3721995 -0.93777633 0
-1.5491532 7.2572141 -0.93173587 0
-2.4879694 11.547291 -0.8065908 0
-4.6203957 21.213324 -1.2150292 0
-4.8250299 22.001558 0.305796 0
-6.9776831 31.433847 -1.1830899 0
-4.9351335 22.022131 -0.21942312 0
-5.0400372 22.251518 0.30572611 0
-5.2697902 23.040913 0.85652983 0
-6.7331877 29.1411 1.0085305 0
-6.7632623 28.991083 1.0031933 0
-5.1100445 21.719053 2.3846164 0
-5.59936 23.637009 4.2967038 0
-2.4184499 10.132047 -0.92384768 0
-5.0606737 21.013016 -1.2064365 0
-5.7848787 23.787113 -0.26338962 0
-5.4749007 22.418383 2.9999239 0
-5.9193668 24.036966 4.3716264 0
-2.1089027 8.4868383 -0.94092488 0
-5.4698877 21.796064 5.0789819 0
-2.7632773 10.936735 -0.75827849 0
-6.819201 26.776569 0.30927151 0
-5.5451727 21.672825 3.4484761 0
-1.8542506 7.181622 -0.93255055 0
-5.4458642 20.967785 -1.2124196 0
-6.7994237 25.985792 0.9329567 0
-1.8792629 7.161552 -0.92764926 0
-7.0486875 26.604563 6.8284912 0
-6.9495234 26.091425 0.30777979 0
-6.2297401 23.276459 4.8447366 0
-2.7884784 10.351438 -0.70932746 0
-5.8256407 21.495548 0.81755912 0
-1.6945037 6.2313643 -0.92879963 0
-2.3039882 8.3914795 -0.93152952 0
-5.9558315 21.562128 -0.74261022 0
-5.9505687 21.443884 2.3771439 0
-1.994297 7.1363297 -0.92794371 0
-5.8461056 20.797499 -1.2086533 0
-6.2208123 21.952089 -0.76256526 0
-6.3803558 22.403267 3.0227797 0
-2.5888529 9.0412436 -0.81108177 0
-6.500608 22.586004 0.3028428 0
-6.6252928 22.883224 3.0830209 0
-2.4190471 8.3062487 -0.92693412 0
-6.3959365 21.826963 -0.75818455 0
-8.4091949 28.529968 1.6934928 0
-7.2997451 24.646305 5.1495581 0
-6.3061814 21.162338 -1.2441024 0
-7.6151643 25.38168 -0.30998966 0
-1.8545521 6.1609716 -0.92426634 0
-2.4990888 8.2410784 -0.92222476 0
-2.6939535 8.8159561 -0.78669941 0
-7.4445815 24.227108 9.5284491 0
-8.5444717 27.648573 3.0066605 0
-2.5441146 8.1959753 -0.91740274 0
-6.7212453 21.502197 -1.2744833 0
-6.5959368 21.042734 3.3999498 0
-2.2193801 7.0258374 -0.92362452 0
-7.6848946 24.209042 7.5878849 0
-7.6147771 23.846724 10.0774 0
-8.4646425 26.406126 5.5298514 0
-3.1737452 9.8504848 -0.43605116 0
-8.5347662 26.421736 4.8645616 0
-2.8490145 8.7657022 -0.78713083 0
-8.6400785 26.484715 1.6044681 0
-8.0051956 24.42136 5.1425347 0
-7.6510086 23.221687 -0.83872807 0
-8.1553659 24.662996 3.3374774 0
-2.3244154 6.9856067 -0.92392731 0
-7.2463255 21.675974 -0.23041615 0
-2.0346076 6.0705066 -0.9198091 0
-2.9190681 8.6555309 -0.78247225 0
-7.3063498 21.565441 0.29923767 0
-2.3644323 6.9555016 -0.91906786 0
-4.2333379 12.385856 -0.92919123 0
-7.3314948 21.30583 -0.22623911 0
-2.0896218 6.0503745 -0.91995656 0
-10.334085 29.758808 8.5561972 0
-10.469703 30.035288 1.0462676 0
-2.4244511 6.935369 -0.91923594 0
-3.0740907 8.7303543 -0.7926904 0
-7.5109324 21.203833 7.8981934 0
-8.216032 23.098446 2.5847144 0
-6.8316374 19.121471 4.6112576 0
-7.2169509 20.081383 -1.1930238 0
-9.0108662 24.959934 0.9160502 0
-2.1796463 6.0151405 -0.92021418 0
-4.5434213 12.475582 -0.94973707 0
-10.135346 27.689455 1.6780787 0
-8.2460394 22.446068 5.3836417 0
-7.4119954 20.085844 -0.703475 0
-9.1557312 24.721828 4.6302834 0
-2.7793801 7.4600396 -0.83413565 0
-7.456985 19.949968 0.29618418 0
-2.5844963 6.8950396 -0.9246453 0
-2.7894011 7.3899617 -0.8242749 0
-7.7470608 20.421154 -1.2286566 0
-7.4018755 19.467175 3.7154515 0
-11.074854 28.96476 7.6531696 0
-8.6465673 22.519602 0.85780287 0
-8.4313889 21.881565 4.7172923 0
-8.6417532 22.340858 -0.81747139 0
-8.4964809 21.901981 4.1570516 0
-5.1534066 13.225361 -1.0348412 0
-8.6814919 22.212385 3.6471717 0
-8.6112833 21.949785 7.0569687 0
-8.6964922 22.121954 4.2019739 0
-8.4664116 21.439875 6.9064441 0
-7.931982 20.037846 2.8102283 0
-2.8344793 7.1246529 -0.78980482 0
-8.681324 21.723951 8.2014179 0
-11.515417 28.727058 4.65165 0
-3.4842288 8.6497021 -0.80371547 0
-10.241293 25.329542 0.93390501 0
-2.7445595 6.774621 -0.91518772 0
-8.7314177 21.453604 8.7258406 0
-7.8321204 19.181734 4.1991291 0
-5.4834814 13.365105 -1.0553328 0
-9.2267046 22.432703 3.1263194 0
-2.8745303 6.9544291 -0.77016461 0
-9.0420732 21.785042 -0.25428495 0
-2.7945814 6.7244787 -0.91037214 0
-8.5773354 20.525265 -0.74033272 0
-2.4647202 5.8943949 -0.92101598 0
-2.8995519 6.8893213 -0.76532674 0
-10.276747 24.310158 -0.31784829 0
-7.6874399 18.131762 4.0027156 0
-2.8396058 6.6543355 -0.90556955 0
-5.8185368 13.574893 -1.0907147 0
-7.1278491 16.592707 2.4013224 0
-10.156507 23.535511 6.371192 0
-11.201575 25.869717 0.29767579 0
-8.592248 19.781607 4.3584476 0
-10.526948 24.145386 -0.93366146 0
-6.4681435 14.787184 2.9398048 0
-8.5576973 19.495211 -1.1969776 0
-2.5647476 5.8341169 -0.9163121 0
-6.0985656 13.809746 -1.120941 0
-9.3423405 21.073586 1.3688577 0
-3.0795796 6.9340334 -0.78063703 0
-12.896277 28.899761 0.29894587 0
-2.5897613 5.7840085 -0.91144025 0
-6.4035444 14.239691 -1.1658947 0
-9.4223728 20.897833 2.4333761 0
-3.1695814 7.0089464 -0.79570317 0
-6.2732344 13.795508 5.4086561 0
-9.7622442 21.416769 4.1584678 0
-3.9543591 8.6390028 -0.82473385 0
-11.471964 24.958956 0.93559813 0
-6.5883265 14.291855 3.2538147 0
-8.9878912 19.41486 -1.2030398 0
-7.0382724 15.172249 2.6391988 0
-4.0443716 8.6839085 -0.83485079 0
-6.3283372 13.515309 5.7180896 0
-13.011374 27.726019 6.0668788 0
-6.9335899 14.714454 -1.226254 0
-7.163322 15.172194 2.6489384 0
-2.7297873 5.753665 -0.9167738 0
-3.3296189 6.9886422 -0.80106354 0
-9.827322 20.524134 8.5769491 0
-10.002501 20.836388 4.6471362 0
-9.752553 20.220798 5.6116505 0
-13.381993 27.635012 -1.1341481 0
-11.462501 23.549265 -0.31666628 0
-9.4678583 19.376987 3.3208144 0
-14.366404 29.265478 7.2264638 0
-7.333683 14.879167 -1.2568383 0
-10.012843 20.257502 2.401082 0
-7.0535426 14.206669 3.2777014 0
-4.3994303 8.818511 -0.86536181 0
-11.137697 22.263079 1.4519447 0
-2.8298218 5.6383052 -0.90715194 0
-10.567686 20.936003 5.2760997 0
-4.484446 8.8484106 -0.8754952 0
-11.487854 22.564196 -0.88828444 0
-14.442018 28.272425 3.2545707 0
-3.4946883 6.8181772 -0.79165781 0
-4.5444679 8.8233004 -0.87565923 0
-11.832895 22.8641 -0.90852892 0
-14.037162 27.056309 5.3034558 0
-7.5536504 14.486518 3.3671043 0
-7.9185534 15.111083 4.327333 0
-10.898225 20.709057 -1.3449931 0
-11.772978 22.273071 0.87564826 0
-2.9498491 5.5679474 -0.90249598 0
-10.907971 20.485693 5.7896595 0
-10.978308 20.538912 -1.3404365 0
-11.263088 21.006922 3.0746627 0
-7.9936881 14.851229 3.8717732 0
-4.7695251 8.8179779 -0.88611126 0
-11.0134 20.268759 -1.3259202 0
-8.3337421 15.301701 2.7367167 0
-3.7197335 6.8077617 -0.80711973 0
-7.833787 14.255863 4.5461617 0
-8.693903 15.743411 -1.3932682 0
-8.7886133 15.840359 5.9366827 0
-12.103305 21.727955 0.28910697 0
-2.9998853 5.3725729 -0.87788665 0
-3.0048883 5.3575349 -0.87292266 0
-7.0089588 12.399754 7.0299029 0
-6.244307 10.991817 1.4642624 0
-9.2738066 16.246508 2.9162884 0
-22.866985 39.744419 -1.8446045 0
-6.2543516 10.84674 1.454016 0
-6.2743635 10.826715 1.4489458 0
-3.0399101 5.2222748 -0.85818076 0
-8.4589939 14.46102 3.8452401 0
-9.1840963 15.632885 -1.4044144 0
-7.209137 12.230209 5.8292646 0
-8.3191156 14.071383 2.5798469 0
-3.0549219 5.1421232 -0.84332526 0
-8.5340872 14.291099 3.4198425 0
-3.0549281 5.0920491 -0.83839917 0
-7.6991658 12.730144 6.0940747 0
-7.7741756 12.795136 6.1290212 0
-3.0599365 5.0219364 -0.82850635 0
-5.72964 9.372138 -1.002146 0
-8.4243011 13.73179 0.65916431 0
-8.9841871 14.601087 3.0993502 0
-9.5992537 15.542436 -1.4203601 0
-7.9692321 12.855122 6.1887403 0
-3.0799453 4.9567885 -0.81863713 0
-9.6792841 15.522344 -1.4205493 0
-22.992975 36.723217 -1.7295187 0
-3.08495 4.9167142 -0.81370354 0
-8.2992868 13.180413 5.1436062 0
-8.7591743 13.874553 8.5187197 0
-6.074676 9.5968828 -1.0474633 0
-8.7444048 13.766659 0.28360903 0
-9.014329 14.15595 3.0436304 0
-6.284678 9.8318195 -1.0825125 0
-9.3294077 14.536812 -0.52135408 0
-7.0945597 11.026092 1.8126739 0
-6.3246942 9.8017368 -1.0826346 0
-8.3693771 12.915192 5.8830757 0
-7.1395836 10.986041 1.8125356 0
-9.0243912 13.830692 3.7932196 0
-9.209487 14.076629 -0.50180507 0
-8.994319 13.70954 9.003026 0
-4.3848748 6.661418 -0.83857942 0
-9.3245211 14.106629 -0.89696658 0
-9.5194502 14.375864 2.7080073 0
-7.9145393 11.910522 4.0274763 0
-7.7596245 11.641109 0.93234956 0
-4.4198871 6.6163044 -0.83870292 0
-9.7344007 14.525072 6.6478677 0
-7.1446466 10.635712 2.697077 0
