# .PCD v0.7 - Point Cloud Data file format
VERSION 0.7
FIELDS x y z intensity
SIZE 4 4 4 4
TYPE F F F F
COUNT 1 1 1 1
WIDTH 1396
HEIGHT 1
VIEWPOINT 0 0 0 1 0 0 0
POINTS 1396
DATA ascii
9.4108038 6.3959918 -1.0083138 0
5.4490089 3.7684107 -0.93971443 0
7.3521948 5.0927439 -0.94178855 0
20.367136 14.047933 -1.362676 0
6.206799 4.3786016 -0.93649495 0
57.894978 40.223476 8.7486763 0
26.595327 18.644333 1.1434598 0
27.380468 19.275768 0.39178398 0
19.837423 14.065435 -1.3346032 0
9.2710457 6.6663713 -1.0136223 0
6.1352091 4.4713311 -0.93668473 0
5.3116899 3.9041927 -0.93010783 0
19.308788 14.023273 -1.306571 0
9.1893787 6.7639723 -1.013849 0
6.1087451 4.5552254 -0.94171798 0
26.590199 19.621294 0.38912734 0
7.2606421 5.4636331 -0.96184516 0
12.876323 9.6941013 -1.1682416 0
6.0425167 4.6281881 -0.93690479 0
26.718348 20.262062 0.39004561 0
12.823812 9.8373175 -1.1733327 0
9.0501289 7.009551 -1.0141808 0
5.1986322 4.0853114 -0.93538249 0
17.980932 13.997386 -1.2364669 0
7.1177807 5.6343498 -0.96224284 0
17.721479 13.986382 -1.2224294 0
9.0069551 7.1926861 -1.0242085 0
5.9198184 4.7893429 -0.9372344 0
24.443663 19.569996 3.2962081 0
25.556883 20.563808 1.1459777 0
29.727173 24.025248 -1.376296 0
12.58615 10.284986 -1.1788937 0
8.9390154 7.365324 -1.0343366 0
5.0709739 4.246264 -0.93572986 0
23.328518 19.296663 1.0768907 0
28.553457 23.698181 0.39915815 0
16.904806 14.146815 -1.1853306 0
12.472227 10.516445 -1.1841546 0
12.451738 10.545855 -1.1842102 0
25.221954 21.340149 -1.1547529 0
26.442167 22.459171 -0.41448626 0
26.580088 22.676159 0.39117426 0
26.406366 22.622324 0.39049497 0
25.057962 21.580627 -1.1552002 0
24.746515 21.40901 -1.1414676 0
26.187475 22.747463 -0.41523859 0
25.406933 22.171825 -1.1835167 0
23.20015 20.335445 1.092108 0
23.22295 20.455631 1.0922722 0
24.65806 21.787912 3.4484856 0
4.903017 4.4311399 -0.93621206 0
5.6152945 5.0754342 -0.93314636 0
5.6346641 5.1107211 -0.93805063 0
6.7299867 6.1127486 -0.96332955 0
6.714757 6.1273236 -0.96337569 0
6.7044268 6.1469984 -0.96340024 0
5.5790057 5.1541696 -0.93822515 0
4.8368831 4.5041051 -0.93640339 0
6.6588416 6.1857257 -0.96354187 0
4.8263884 4.5336957 -0.93642128 0
8.4260597 7.866096 -1.0258845 0
8.4058504 7.8805552 -1.0259496 0
11.892002 11.155614 -1.1858729 0
23.696695 22.197178 -0.36984631 0
23.621248 22.230383 -0.37010553 0
19.71505 18.639685 2.8880746 0
19.488068 18.499903 2.8621397 0
21.485867 20.463285 5.2408509 0
21.302616 20.389378 5.2101216 0
4.7348795 4.630971 -0.93669057 0
19.460283 18.807999 3.5172381 0
21.574564 20.918837 6.0264821 0
8.2182732 8.0504646 -1.0265318 0
11.623375 11.393562 -1.1817156 0
8.1728439 8.0792904 -1.0216812 0
14.712039 14.519927 -1.0982155 0
21.475319 21.212276 3.1812739 0
4.6638732 4.6988649 -0.93690586 0
8.1122284 8.1226854 -1.0218779 0
11.466938 11.494618 -1.1822325 0
21.156704 21.191847 0.37005299 0
19.601229 19.714014 2.9533336 0
19.42593 19.619894 3.5826242 0
21.546099 21.8358 5.4069452 0
21.693911 22.088903 4.7176509 0
4.5927782 4.7717662 -0.93711901 0
5.2444768 5.4546356 -0.92925596 0
7.9552073 8.2585173 -1.0223732 0
11.224606 11.658491 -1.1780311 0
20.631514 21.414776 -0.32177559 0
19.682125 20.503674 3.0091293 0
4.5223527 4.8048816 -0.93235707 0
4.5367527 4.8400774 -0.94228053 0
20.458448 21.582018 5.2477179 0
4.5017514 4.8441877 -0.93740726 0
7.8333063 8.3851976 -1.022746 0
11.042181 11.82375 -1.1786085 0
13.872317 14.89459 -1.0811145 0
20.033104 21.546328 -1.0039406 0
19.387516 20.942106 1.0232828 0
19.183388 20.790867 4.3324471 0
5.0921812 5.6102881 -0.93471849 0
7.7071958 8.4669323 -1.0181645 0
25.73266 28.138193 -1.383538 0
20.580725 22.614689 1.0787798 0
18.560587 20.477697 4.2349186 0
5.0415611 5.6538844 -0.93487835 0
10.760015 11.986752 -1.1695628 0
19.126862 21.305302 1.0275254 0
18.186405 20.340052 3.5384252 0
4.3501282 4.9599528 -0.93289316 0
4.995944 5.6975803 -0.93502009 0
10.653505 12.089029 -1.1698987 0
20.113598 22.803757 1.0721387 0
18.600893 21.16646 4.9804912 0
5.9097357 6.8102694 -0.95591164 0
20.166494 23.08556 -1.0575072 0
20.167149 23.184908 -0.3424404 0
19.287636 22.239555 4.4937153 0
4.9248786 5.7705836 -0.935238 0
10.457355 12.184249 -1.1655767 0
18.853485 21.973768 -0.98311484 0
18.778776 21.970501 1.70662 0
4.2340579 5.0417333 -0.93327188 0
7.3537631 8.7178535 -1.0143298 0
7.3335705 8.732336 -1.0143967 0
7.3183789 8.746912 -1.0144449 0
5.7432694 6.9209175 -0.95146441 0
7.2778015 8.7858753 -1.014573 0
12.610023 15.200057 -1.0406684 0
18.617947 22.481131 1.0363113 0
19.038986 23.072908 3.1482627 0
20.022909 24.345329 6.2977533 0
5.6576805 6.9687066 -0.94675529 0
7.1671395 8.8431063 -1.0149537 0
18.061508 22.209753 0.3590458 0
18.240866 22.510687 4.4249272 0
19.980915 24.748529 6.3528318 0
5.5969553 7.0221024 -0.95194995 0
7.0813661 8.9009495 -1.0102446 0
17.024403 21.318649 0.35458449 0
18.019308 22.640459 4.4191313 0
4.691833 5.9891558 -0.94098043 0
5.5264974 7.0602956 -0.94720483 0
11.995489 15.266004 -1.0229857 0
17.403648 22.190136 0.35647953 0
17.385468 22.252678 3.6464577 0
4.6364245 6.0226808 -0.93617952 0
9.6836443 12.520684 -1.1483386 0
18.674717 24.133722 1.0673801 0
18.243607 23.663542 3.8404841 0
18.923574 24.634972 6.9536443 0
9.5783873 12.553196 -1.1437354 0
17.53005 22.976244 0.35734296 0
17.155893 22.561892 3.6606994 0
4.5557008 6.0805283 -0.93646431 0
6.7945361 9.0587978 -1.0062883 0
16.949165 22.525072 -0.95515704 0
18.915514 25.231707 1.0938344 0
3.9203312 5.3179483 -0.93431103 0
6.7241836 9.0920801 -1.0065464 0
17.270874 23.270649 -0.9935472 0
16.59967 22.444864 3.6084614 0
18.779264 25.484993 7.0834742 0
4.4549632 6.1429024 -0.93682408 0
5.2394528 7.2329369 -0.94323742 0
6.6184707 9.1544504 -1.0069292 0
16.794052 23.160345 -0.97546995 0
17.206947 23.810781 3.0914774 0
18.927832 26.28204 6.4594226 0
5.1884751 7.3015442 -0.94840145 0
6.5280228 9.1972342 -1.0022615 0
16.704233 23.467749 -0.98567998 0
16.566084 23.384127 0.35374844 0
16.552664 23.451777 3.6987469 0
3.7542548 5.4135756 -0.93490553 0
19.435587 27.760218 6.742106 0
4.3086724 6.2490349 -0.93733978 0
5.0677285 7.3685002 -0.94383836 0
4.2736311 6.2581744 -0.93747103 0
8.7766113 12.799447 -1.1217554 0
8.7514725 12.813826 -1.1218483 0
8.7065268 12.81783 -1.1220207 0
16.622866 24.474054 -1.0205317 0
16.122303 23.848131 1.017226 0
16.164145 24.028719 1.022475 0
20.039108 29.887411 1.2054048 0
18.274618 27.370949 5.7623386 0
15.477923 23.335014 0.99945819 0
17.37402 26.288872 4.7782965 0
4.1326537 6.3445411 -0.93297517 0
4.1224632 6.3592567 -0.93800747 0
8.4058409 12.915858 -1.1131502 0
15.392569 23.663303 -0.30573162 0
4.0524635 6.3725524 -0.93327236 0
15.100155 23.56214 -0.30192438 0
4.0223331 6.3867946 -0.93338215 0
5.9507599 9.4433575 -0.98939347 0
15.157797 23.997639 -0.30649576 0
18.917187 30.020187 6.1860929 0
5.9006977 9.4571886 -0.9895817 0
3.4274256 5.5900588 -0.92608213 0
3.402184 5.6094108 -0.9261694 0
3.3771296 5.6187663 -0.92626202 0
2.3845432 6.0143914 -0.91488838 0
2.6829827 6.9694552 -0.9232682 0
5.0434566 13.187219 -1.0061191 0
3.0176556 8.1450691 -0.91640055 0
4.8443422 13.183038 -1.0018934 0
2.9379275 8.1483116 -0.91170621 0
8.8457327 24.47007 -0.88594985 0
8.843585 24.751835 5.2642288 0
4.6751442 13.174515 -0.99255228 0
9.0899391 25.80094 5.4656887 0
4.6056213 13.163078 -0.99282694 0
8.508749 24.368359 -0.87730956 0
2.0938897 6.1325555 -0.91594291 0
2.7927985 8.1950846 -0.91224158 0
5.6606584 16.601688 -0.91208458 0
9.136178 26.893572 0.32633963 0
2.7378201 8.208868 -0.9124465 0
5.5599213 16.674585 -0.91743934 0
8.9104357 26.834469 -0.32956848 0
8.8582973 27.025642 4.985352 0
2.6629357 8.2222271 -0.91272795 0
2.6429431 8.2267952 -0.91280222 0
5.3464413 16.635267 -0.90828586 0
7.7962189 24.39913 -0.87006199 0
7.6189709 23.968794 3.2490673 0
1.9241211 6.1636796 -0.91157627 0
2.1889622 7.0383606 -0.91012979 0
2.5480518 8.2447271 -0.90815771 0
4.0533605 13.136662 -0.97497582 0
7.4646544 24.272627 -0.86141026 0
7.9292812 25.944941 0.95120239 0
7.6441975 25.192917 4.6347599 0
7.5232034 24.985664 4.5941906 0
2.4532654 8.2576761 -0.9085151 0
4.9386373 16.607044 -0.8998785 0
7.1616082 24.231672 -0.85760534 0
4.8209786 16.489763 -0.89038908 0
11.652073 39.965607 1.3073545 0
6.9712572 24.136244 2.6516318 0
8.1388626 28.396439 3.7632067 0
1.7396059 6.1845188 -0.90727007 0
1.73435 6.2043595 -0.91228104 0
1.7240756 6.2241125 -0.91231012 0
6.7652841 24.426777 3.2659771 0
6.6304488 24.149298 3.2303214 0
1.6746216 6.2030368 -0.90750909 0
6.4662995 23.96648 2.6245942 0
7.4368668 27.798149 3.6701987 0
6.4060407 24.174932 3.2244658 0
6.3720145 24.254513 2.649368 0
3.3869381 13.093117 -0.9575671 0
2.6064541 10.209165 -0.93197143 0
6.0652084 23.990389 -0.8369664 0
2.5369596 10.19772 -0.92724478 0
4.0021091 16.328547 -0.86862838 0
3.9276488 16.317074 -0.868922 0
3.0833039 13.092008 -0.94873643 0
3.0187721 13.080728 -0.94898975 0
2.9242208 13.078853 -0.94935322 0
-1.3725735 7.9738374 -0.84768629 0
-2.0535884 11.277802 -0.78382421 0
-1.8019696 9.5513239 -0.85372388 0
-1.3263913 6.8680964 -0.85826826 0
-2.1548381 10.750956 -0.73941875 0
-4.6422911 22.625036 -0.80278468 0
-1.4208841 6.8664508 -0.86359739 0
-4.9646893 23.459663 0.82646847 0
-4.9914784 23.314899 -0.83870149 0
-4.9011374 22.631153 -0.80369294 0
-2.9069929 13.289765 -0.67090929 0
-2.931318 13.254377 -0.67101002 0
-2.280792 10.213702 -0.69509852 0
-2.1232095 9.410984 -0.84490764 0
-1.5547819 6.8391185 -0.8640722 0
-2.3344114 10.142809 -0.69031596 0
-2.3647935 10.177337 -0.6954062 0
-5.4416351 23.1432 -0.83535635 0
-2.6945641 11.362258 0.0039773285 0
-2.7417674 11.456441 0.27385685 0
-2.7561164 11.421202 0.27379158 0
-2.7391694 11.236306 0.53877068 0
-3.7160442 15.067801 -0.80793631 0
-3.7348561 14.997499 -0.80303252 0
-5.8252702 23.172579 -0.84168029 0
-5.7071381 22.504034 -0.26656207 0
-5.7425218 22.467272 2.9683182 0
-1.7330741 6.7860518 -0.86470687 0
-2.3842752 9.2416954 -0.83588278 0
-7.4687281 28.634157 -1.1099771 0
-7.4003057 28.163046 4.3450851 0
-2.0476277 7.7864299 -0.84535456 0
-6.3728075 24.004482 -0.30820999 0
-7.0523572 26.363104 4.0904984 0
-2.0772984 7.7759323 -0.8454603 0
-6.4707007 23.967632 0.84144199 0
-1.610842 5.987556 -0.87962902 0
-6.29073 22.938467 5.3066421 0
-2.6609244 9.7024374 -0.65663207 0
-6.4187288 23.128782 -0.2887511 0
-1.6556107 5.9867964 -0.88478112 0
-6.7533593 23.996548 6.1555114 0
-6.4832106 22.997646 0.26597297 0
-6.782362 23.848171 0.84031475 0
-6.4135108 22.368628 0.2659407 0
-6.2281237 21.551058 0.78622842 0
-1.7095611 5.9358253 -0.87498438 0
-1.7244176 5.9305744 -0.87503672 0
-2.5236766 8.6041613 -0.76662958 0
-6.5570183 22.116779 -0.2696636 0
-7.9662747 26.690395 3.5074868 0
-2.3004365 7.7272902 -0.85123897 0
-6.5251741 21.677227 -0.25974247 0
-8.0425549 26.513847 4.8021579 0
-2.3349094 7.7017293 -0.84636629 0
-7.2374258 23.524288 7.2986526 0
-7.320632 23.774252 4.3384571 0
-2.3749273 7.7160978 -0.85149539 0
-5.1791658 16.661491 -0.94727802 0
-7.3140831 23.374384 4.2733097 0
-3.1544814 10.079972 -0.70815265 0
-7.6913724 24.36035 0.85241878 0
-7.5361834 23.72599 4.9377041 0
-7.0954094 22.289392 -0.82643378 0
-7.4940405 23.421867 4.2927165 0
-7.6231508 23.668877 7.3723984 0
-7.6324387 23.664911 4.337347 0
-7.053515 21.839987 -0.80147994 0
-7.7787652 23.947588 4.9919715 0
-2.478301 7.6444087 -0.84687221 0
-5.6301222 17.175091 -0.99359572 0
-8.8757725 26.912758 3.5594757 0
-5.524435 16.654707 3.981575 0
-5.7251382 17.203747 -0.99890578 0
-8.0999384 24.193821 3.2309732 0
-7.707459 22.883076 6.5617781 0
-7.7496982 22.974018 2.5166495 0
-2.557152 7.5931401 -0.84215713 0
-7.2177644 21.202715 -0.7773025 0
-8.1425076 23.80785 4.3806758 0
-2.5866871 7.5726643 -0.84226394 0
-10.573639 30.635061 1.0052496 0
-7.0783362 20.412785 4.3178725 0
-3.5239146 10.154438 -0.72436643 0
-10.70974 30.588511 0.25476539 0
-2.0209558 5.800499 -0.87107909 0
-3.599782 10.233336 -0.73458874 0
-8.2461405 23.252808 0.83007622 0
-7.5829206 21.250938 3.9565127 0
-7.6355319 21.259375 6.1563506 0
-8.753931 24.320969 0.25879723 0
-2.0703239 5.7746696 -0.87125242 0
-7.2467546 19.982557 -1.2179021 0
-10.072068 27.621386 3.680722 0
-6.3639975 17.357714 4.6290359 0
-11.322883 30.805536 -0.50721872 0
-2.3910606 6.5400958 -0.86201787 0
-7.463758 20.174578 -1.2385533 0
-2.1199071 5.7638426 -0.87141967 0
-3.9025247 10.498969 -0.77049422 0
-11.716345 31.253796 3.3566628 0
-3.9168508 10.458749 -0.76555789 0
-11.775345 31.208029 3.3564463 0
-6.2709627 16.554106 4.4440255 0
-9.3169899 24.543131 0.86699963 0
-7.9463878 20.825844 4.4451227 0
-9.3834238 24.429716 7.7417703 0
-11.678622 30.310389 1.0063965 0
-6.1685629 15.950896 3.474123 0
-3.1330321 8.104516 -0.73886991 0
-10.390699 26.638369 0.91424239 0
-2.2186687 5.712203 -0.86676359 0
-3.2090724 8.1934195 -0.7490871 0
-11.902476 30.13669 3.2655926 0
-2.7778485 7.0593743 -0.78309512 0
-5.9803123 14.997869 5.279388 0
-11.914519 29.790821 5.5104294 0
-9.5498943 23.748411 5.6809335 0
-2.8014402 6.9739623 -0.7732048 0
-6.1830616 15.210054 5.3637981 0
-8.9852171 22.061874 4.162147 0
-2.3027008 5.6758189 -0.86705112 0
-9.9081039 24.033598 5.7648544 0
-3.3628621 8.1611195 -0.75460494 0
-9.7725143 23.502972 -0.92993808 0
-8.9119692 21.348251 3.4971104 0
-10.061118 23.95162 5.759315 0
-11.540639 27.40333 0.25071096 0
-8.886651 21.013676 3.4520655 0
-6.9136238 16.275406 4.4367843 0
-10.183143 23.906851 0.85386801 0
-6.7586265 15.802886 3.4871104 0
-6.9981117 16.264273 4.4415007 0
-10.734317 24.889601 0.2524173 0
-6.7916026 15.687465 3.4719584 0
-2.8709166 6.6376801 -0.73855352 0
-9.9190054 22.633537 6.704288 0
-6.2462149 14.198806 6.7132154 0
-2.7660775 6.3291044 -0.85332298 0
-8.5872822 19.434664 -1.2225714 0
-10.359204 23.329124 2.6280794 0
-9.9099531 22.209044 5.9991546 0
-9.0218573 20.168812 -1.2837265 0
-19.446594 43.191147 0.23059817 0
-7.3283362 16.230188 3.6053982 0
-9.4827795 20.880312 5.1150589 0
-2.9176807 6.4418325 -0.71377313 0
-9.4370632 20.618309 -1.3249222 0
-9.6067553 20.894337 3.4746518 0
-2.859323 6.2426252 -0.84865427 0
-9.5671053 20.65662 -1.3353341 0
-19.984228 42.864647 0.22870919 0
-7.7900629 16.663839 4.1540499 0
-5.2529035 11.230082 -0.8846606 0
-11.359434 24.111876 0.25007463 0
-14.647277 30.950407 5.8568497 0
-2.9959252 6.3505983 -0.70905638 0
-10.614651 22.267477 -0.89316845 0
-7.5317469 15.681284 7.4945593 0
-3.0307739 6.3500795 -0.70916855 0
-7.2690201 15.055274 6.3201847 0
-6.1095023 12.652156 2.8980808 0
-3.075947 6.3744249 -0.71430504 0
-10.915348 22.393625 -0.90910244 0
-7.942152 16.22809 1.0983862 0
-2.6730225 5.4798679 -0.86331213 0
-3.8661077 7.8687172 -0.75134099 0
-3.8346353 7.7641211 -0.73627472 0
-5.9870801 12.025215 -0.98676074 0
-8.0346918 16.042383 -0.15698594 0
-7.8093405 15.534735 1.8735797 0
-6.6508636 13.169897 3.0315104 0
-3.9499791 7.8175144 -0.74662697 0
-7.4300246 14.55837 6.1844907 0
-6.3362079 12.409567 1.8822629 0
-4.0411515 7.9212723 -0.76688397 0
-7.793489 15.098915 5.1134968 0
-8.2436695 15.944602 0.25730932 0
-6.7133961 12.892877 6.7012377 0
-2.9967375 5.7852201 -0.7892431 0
-8.2972841 15.868943 0.25711083 0
-9.404232 17.908201 3.0892541 0
-3.3091669 6.3259773 -0.72506344 0
-7.6523008 14.445564 6.1837378 0
-6.481195 12.232354 2.8567405 0
-8.3710499 15.753479 -0.98817182 0
-3.5071504 6.6028166 0.61440337 0
-2.8453727 5.3571482 -0.85889602 0
-6.6088495 12.307037 -1.0386631 0
-8.4776459 15.706866 -0.15852389 0
-2.8649755 5.3368387 -0.85896397 0
-9.148509 16.810781 6.2047234 0
-6.8098626 12.508505 1.5857764 0
-6.8568745 12.56879 -1.0693706 0
-3.5145216 6.437634 0.60932863 0
-3.397171 6.2196484 -0.72037494 0
-3.5384519 6.4474158 0.26925412 0
-2.9093847 5.3111534 -0.85911083 0
-3.5431738 6.4323373 0.26923552 0
-2.9191201 5.2960005 -0.85914636 0
-3.5510082 6.4023905 -0.2408019 0
-7.3018122 13.06205 1.649386 0
-8.8833494 15.810109 4.5352364 0
-8.7350864 15.518575 0.25559512 0
-2.9535956 5.2704735 -0.85926235 0
-8.8580961 15.610232 5.3802581 0
-7.4369144 13.100326 1.6589687 0
-3.465353 6.1186147 -0.71061945 0
-9.3357124 16.283596 6.5739584 0
-6.6407976 11.585929 1.5010223 0
-7.271596 12.658486 -1.0956612 0
-6.8898993 11.916134 5.9853568 0
-3.5098674 6.0979743 -0.71076548 0
-8.7058449 15.004311 -0.14447552 0
-9.283042 15.940739 2.8390028 0
-7.4272337 12.741505 -1.111128 0
-7.4767575 12.733333 6.3987522 0
-3.0321786 5.1992564 -0.85452735 0
-7.4353809 12.621439 -1.1011907 0
-10.46347 17.68059 2.1607947 0
-3.568908 6.052114 -0.71096241 0
-8.7179604 14.65406 0.65038329 0
-10.358086 17.336611 3.5560312 0
-8.8034163 14.718513 -0.93987632 0
-7.0337548 11.730692 2.1748292 0
-9.2575188 15.355469 5.3739133 0
-6.5854664 10.921825 1.4459963 0
-4.7680244 7.9113803 -0.80918586 0
-9.1364546 15.016244 8.0492096 0
-4.7572231 7.8565164 -0.80416739 0
-7.8342509 12.8091 5.6976433 0
-10.504652 17.154972 3.5455143 0
-10.154531 16.565798 -0.1985797 0
-9.2114401 14.972324 2.2989333 0
-9.1030617 14.769827 -0.95580554 0
-8.2042866 13.260943 0.98158991 0
-3.1713586 5.1521544 -0.71497059 0
-9.6259346 15.467689 0.25276196 0
-7.4750686 11.980198 1.898514 0
-8.5062323 13.602812 -1.2342719 0
-9.0335827 14.375751 -0.53569937 0
-8.9892378 14.241105 0.25440583 0
-11.578684 18.261328 3.7924619 0
-9.3871565 14.74931 5.2483273 0
-7.8482246 12.29898 6.3224578 0
-3.7459443 5.9045715 -0.70655143 0
-10.556472 16.461046 -0.20487413 0
-6.6787734 10.400637 1.9905599 0
-9.2234478 14.328361 -0.14130473 0
-7.5912318 11.763871 1.8880906 0
-10.140882 15.676533 -0.17879409 0
-23.878164 36.701653 6.3592014 0
-8.7480803 13.454957 -1.2350702 0
-10.064731 15.370274 6.9163928 0
-3.1362188 4.832417 -0.8049432 0
-10.248052 15.610449 -0.61915004 0
-11.996308 18.201473 3.8161378 0
-9.313674 14.122536 -0.53164554 0
-3.1405978 4.7923179 -0.79996622 0
-9.4350328 14.241017 -0.541991 0
-9.8705788 14.802087 9.6718578 0
-11.941758 17.87129 6.9312267 0
-3.1501095 4.7621531 -0.79500234 0
-8.888423 13.26098 6.044477 0
-10.050765 14.971512 4.5113134 0
-9.0088367 13.416129 1.0041213 0
-10.913611 16.227312 -1.1160579 0
-3.1595573 4.7269893 -0.7900399 0
-10.933231 16.144518 6.8138981 0
-7.9660578 11.764203 2.2469275 0
-9.3240805 13.742533 -0.13177767 0
-3.4598508 5.1280737 -0.73586333 0
-10.086145 14.792939 -0.57886684 0
-3.1636429 4.6668735 -0.78006601 0
-9.3831778 13.696862 -0.13197321 0
-3.9738793 5.8264403 -0.71727216 0
-11.238271 16.313005 0.24796355 0
-5.5321689 8.0465059 -0.87152171 0
-8.9124994 12.875446 7.6343112 0
-10.093835 14.551359 4.4310679 0
-9.0427761 12.99894 7.2739377 0
-5.622766 8.1103611 -0.8867836 0
-9.0672121 12.968672 7.2688537 0
-10.277956 14.715881 -0.99948418 0
-8.3025875 11.859996 2.6259131 0
-9.7239113 13.830756 5.9420362 0
-10.364431 14.728182 4.0652742 0
-9.4757586 13.423747 6.642704 0
-10.070424 14.246752 4.8010645 0
-7.7175503 10.922791 1.8124778 0
-10.009597 14.097456 5.1912169 0
-11.597649 16.312813 3.5268712 0
-10.288994 14.45595 -0.98458469 0
-3.1963265 4.5212741 -0.76519692 0
-10.384753 14.529789 -0.99486065 0
-3.2011602 4.5111918 -0.76021302 0
-9.013422 12.530339 5.0488977 0
-3.1957848 4.4862409 -0.76020145 0
-10.377593 14.384988 -0.98487437 0
-8.3156834 11.495197 2.2407806 0
-11.090375 15.300875 -0.63184106 0
-11.045167 15.190384 2.8782923 0
-11.230268 15.419307 -1.0822453 0
-11.122471 15.214746 2.0030544 0
-9.6186037 13.118014 4.4971762 0
-9.5102539 12.923515 7.3674788 0
-9.7923269 13.322722 -1.2883353 0
-11.181332 15.154131 1.9978586 0
-4.170917 5.6787648 -0.71790481 0
-10.5333 14.202953 0.24960981 0
-3.6464038 4.9453955 -0.73146987 0
-11.373784 15.25767 -0.63772309 0
-11.310365 15.117695 2.002454 0
-10.002119 13.355272 -1.2989713 0
-11.310035 15.048186 0.68243176 0
-3.686018 4.9298534 -0.73659265 0
-11.35031 15.023161 -0.62770557 0
-11.438914 15.095849 3.3470643 0
-11.573063 15.213401 5.7116866 0
-26.303619 34.453506 4.2460637 0
-3.7155223 4.9044399 -0.73668587 0
-10.908604 14.239035 -1.0015376 0
-9.8529425 12.790105 6.1063933 0
-8.6004963 11.152013 2.559833 0
-14.388129 18.543489 5.2138376 0
-10.518186 13.544227 -1.3455042 0
-11.217503 14.385146 -0.17244175 0
-3.2716284 4.2249341 -0.73048031 0
-11.519856 14.655039 4.196713 0
-11.238066 14.275285 -1.0175338 0
-27.626236 34.879707 1.2320944 0
-11.382029 14.361783 4.5770721 0
-11.469673 14.432528 -1.038205 0
-11.862731 14.867423 -0.19430062 0
-3.3108857 4.1843519 -0.72560358 0
-11.704261 14.557946 4.6561341 0
-11.774446 14.582139 4.670927 0
-10.809506 13.361118 -1.351429 0
-10.864396 13.365497 -1.3565948 0
-10.905525 13.364923 -0.95671606 0
-28.419796 34.611755 1.2396171 0
-9.0194101 10.977561 1.9085234 0
-3.8572423 4.7174473 -0.72714293 0
-11.109535 13.427709 -1.3723233 0
-28.225006 33.933952 4.315083 0
-3.399662 4.1230936 -0.73087788 0
-3.9069457 4.7067962 -0.72729397 0
-3.916873 4.7066641 -0.73232186 0
-15.196469 18.032471 -1.4087542 0
-12.053984 14.218921 6.5250192 0
-28.6178 33.645023 5.3488388 0
-3.9310977 4.6564527 -0.72737265 0
-11.498838 13.463369 -1.4034913 0
-12.071135 14.063498 7.9599476 0
-10.360975 12.056018 3.2346878 0
-4.7468791 5.5413899 -0.75465834 0
-4.7465205 5.5163903 -0.74966121 0
-11.044221 12.687241 5.052762 0
-12.02287 13.754283 8.3500357 0
-4.0103731 4.6254148 -0.73261189 0
-11.934632 13.608447 -1.4397734 0
-10.826632 12.284351 7.5133572 0
-9.6809626 10.974771 2.9965332 0
-7.6795888 8.7005777 -1.0928868 0
-12.478274 14.019716 6.0837059 0
-12.499496 14.035388 3.3236396 0
-7.7645946 8.7195997 -1.1031369 0
-15.651424 17.443424 -1.400234 0
-15.574238 17.279474 -1.3900317 0
-12.176677 13.456015 -1.4455251 0
-12.206277 13.43573 -1.4456158 0
-12.195284 13.365939 -1.4405941 0
-12.148761 13.251578 -1.4304749 0
-12.132789 13.181846 -1.4204375 0
-15.668897 16.933994 -1.3753723 0
-9.8680191 10.617364 5.5059323 0
-3.7425721 4.0585299 -0.76189673 0
-4.8823452 5.2597017 -0.7350992 0
-10.682159 11.383091 3.93362 0
-8.1933098 8.7197819 -1.1394113 0
-12.543009 13.240412 5.0033789 0
-10.520013 11.065035 4.6090584 0
-10.628024 11.169565 2.04375 0
-10.647588 11.144391 2.0436962 0
-4.2067933 4.4228363 -0.72821021 0
-12.435088 12.892329 4.0386605 0
-10.353505 10.697424 4.1345191 0
-13.344877 13.725617 7.1861224 0
-11.344879 11.661119 2.5267379 0
-4.8992949 5.0544872 -0.72015429 0
-4.9698019 5.1036439 -0.73035192 0
-12.679102 12.864801 4.0729785 0
-4.2604737 4.3421378 -0.72335505 0
-3.8147187 3.8774712 -0.7470994 0
-13.265683 13.227397 6.5513463 0
-16.028286 15.926864 -1.3414565 0
-12.302765 12.176408 -1.365977 0
-12.347608 12.175954 -1.3710988 0
-8.9219751 8.7717533 -1.2064605 0
-9.0376568 8.8404245 -1.2217863 0
-4.3237495 4.2363224 -0.72352123 0
-12.15351 11.716104 7.2694964 0
-13.733835 13.167641 6.6500478 0
-16.110298 15.386957 -1.3216681 0
-13.787652 13.097201 6.6448998 0
-39.772072 37.57793 -2.3832164 0
-12.43602 11.730696 -1.3463274 0
-11.893503 11.15081 3.305217 0
-13.732601 12.763361 6.5550694 0
-3.8913209 3.6563528 -0.732288 0
-5.1954036 4.841001 -0.72595406 0
-12.692565 11.691428 4.3179874 0
-5.1797156 4.7911906 -0.72090364 0
-14.074319 12.835535 3.819103 0
-15.952332 14.45023 -1.2661822 0
-5.2037225 4.7259216 -0.72096348 0
-3.9500988 3.5805771 -0.72743881 0
-9.4153662 8.396945 -1.217795 0
-31.491474 27.74015 -1.7648141 0
-5.1969142 4.5960159 -0.70593035 0
-16.131084 14.039219 -1.2616417 0
-4.4636421 3.9045322 -0.70386255 0
-9.5728273 8.245512 -1.2232064 0
-3.9931407 3.4499652 -0.71753466 0
-9.6621161 8.2096338 -1.2284458 0
-16.280607 13.673462 -1.2520139 0
-5.4461045 4.5831909 -0.73160076 0
-16.424366 13.607178 -1.2573986 0
-5.4755359 4.5478706 -0.73167384 0
-40.230263 32.853966 1.3708791 0
-12.393136 10.098832 -1.2460648 0
-4.5963216 3.7629468 -0.70419383 0
-16.4538 13.21271 -1.2424297 0
-5.4634857 4.3980498 -0.71661723 0
-16.35556 12.964198 -1.2221293 0
-5.4979844 4.3676763 -0.7167033 0
-31.164352 24.321568 -1.6485826 0
-9.9351063 7.7475114 -1.2191207 0
-4.1247258 3.2282629 -0.71284485 0
-12.561623 9.6529751 -1.2314547 0
-4.7092505 3.6316323 -0.70447075 0
-16.337431 12.370635 -1.1969966 0
-5.5053596 4.1776571 -0.70168817 0
-30.640072 22.845287 -1.5869631 0
-12.683436 9.4371862 -1.2267464 0
-5.5244832 4.1174703 -0.70172584 0
-30.321795 22.194958 -1.5560088 0
-12.756651 9.3167067 -1.226921 0
-4.7320013 3.4713569 -0.69449544 0
-16.389559 11.801414 -1.177038 0
-5.5982943 4.0416985 -0.70190275 0
-30.120546 21.339121 -1.5253283 0
-10.066406 7.1271949 -1.1893592 0
-4.2919245 3.0512407 -0.71824241 0
-12.766034 8.9024515 -1.2068659 0
-4.81041 3.3654757 -0.69467723 0
-16.543415 11.365961 -1.1673644 0
-5.6461601 3.8912497 -0.6969924 0
-28.963923 19.584578 -1.4319209 0
-10.157684 6.861753 -1.1795429 0
-4.3504438 2.9505367 -0.71836829 0
-12.851148 8.5473719 -1.1920149 0
-4.883841 3.2596667 -0.69484055 0
-29.504175 19.295502 -1.4482901 0
-10.139599 6.6273503 -1.1644391 0
-4.8628912 3.1848946 -0.68476486 0
-37.613293 24.11805 -0.86073196 0
-12.922372 8.2722902 -1.187137 0
-4.9073911 3.1544132 -0.68987048 0
-37.163948 23.359343 -0.84438515 0
-12.975591 8.1420622 -1.1822469 0
-4.936801 3.1140978 -0.68993354 0
-36.277142 22.365326 -0.81181943 0
-16.874741 10.375302 -1.1530129 0
-9.7970839 6.0067725 -1.088388 0
-4.9810672 3.0636263 -0.69003367 0
-35.993225 21.655092 -0.79589772 0
-16.956951 10.170072 -1.1481755 0
-9.6693954 5.7834058 -1.062994 0
-5.0052323 3.0033753 -0.69007671 0
-36.031433 21.136375 -0.79086983 0
-16.968721 9.9206009 -1.1381421 0
-9.6524849 5.6338468 -1.052905 0
-5.0243654 2.9381793 -0.68510568 0
-35.938972 20.549059 -0.78047597 0
-17.061121 9.7302809 -1.1383259 0
-9.6104441 5.4695525 -1.0377462 0
-5.0335078 2.8730919 -0.68010509 0
-36.022884 20.084866 -0.77556193 0
-17.062981 9.4859257 -1.1332594 0
-9.3874474 5.2071595 -0.99708867 0
-5.1029272 2.8373728 -0.69027126 0
-30.497318 16.564966 -1.4202024 0
-13.107001 7.1032424 -1.1472961 0
-6.1279407 3.3266118 -0.71307218 0
-36.865692 19.599091 -0.79261589 0
-17.223227 9.1254463 -1.1285695 0
-9.2336349 4.8892107 -0.96658647 0
-5.1665592 2.7367349 -0.69039929 0
-5.1764722 2.7316353 -0.69041991 0
-5.1762815 2.7166412 -0.69041407 0
-4.572804 2.392941 -0.69875121 0
-4.582654 2.3828371 -0.70377409 0
-4.6578369 2.4070556 -0.71897554 0
-4.6728058 2.4068985 -0.71901 0
-39.536407 19.819725 1.1954229 0
-31.173616 15.537443 -1.4316362 0
-13.169989 6.5490317 -1.1272763 0
-6.1496406 3.0666127 -0.69802999 0
-4.7220387 2.3513818 -0.72411454 0
-13.208393 6.4240003 -1.1273313 0
-5.3045177 2.5903747 -0.70069277 0
-32.004158 15.246222 -1.4586834 0
-9.3180046 4.4442573 -0.95164549 0
-5.3741498 2.5696852 -0.71085835 0
-31.919506 14.858273 -1.4483358 0
-13.119546 6.1006365 -1.1019849 0
-6.3278947 2.9449737 -0.71843827 0
-4.8305759 2.2452657 -0.73434675 0
-17.628788 7.995111 -1.1192255 0
-9.2750807 4.2001324 -0.93644297 0
-5.4729638 2.4837399 -0.72107351 0
-32.472744 14.345341 -1.4645691 0
-13.140778 5.7912383 -1.096926 0
-5.5224171 2.4432704 -0.72618413 0
-32.694645 14.104313 -1.4700464 0
-9.3229265 4.0250411 -0.93149459 0
-5.5518899 2.4030054 -0.72623742 0
-38.959251 16.392433 -0.80692494 0
-17.726973 7.4359493 -1.1142635 0
-9.065505 3.797858 -0.890746 0
-5.5911212 2.3426545 -0.73131275 0
-39.159008 15.962306 -0.80727768 0
-17.669041 7.1822295 -1.0990167 0
-9.3351297 3.7904108 -0.92142677 0
-5.0329404 2.0482621 -0.75476873 0
-17.742151 7.0270677 -1.1041423 0
-6.6087656 2.6276238 -0.73401177 0
-39.957764 15.482408 -0.82412076 0
-13.282911 5.1367426 -1.082021 0
-5.7546778 2.2361465 -0.74667394 0
-18.079697 6.8397379 -1.1199222 0
-9.5277052 3.5990648 -0.9368329 0
-6.7677011 2.5512242 -0.7543788 0
-5.1514959 1.9371319 -0.77001464 0
-34.179325 12.467705 -1.5081923 0
-13.30449 4.8423686 -1.0769491 0
-6.9171991 2.5198736 -0.76974118 0
-5.25108 1.911182 -0.78524983 0
-42.4851 14.958189 -0.88033974 0
-34.38921 12.032599 -1.5135399 0
-13.262134 4.6333389 -1.0667454 0
-5.9326811 2.0795796 -0.76704729 0
-34.525795 11.737571 -1.5137613 0
-9.2979765 3.167057 -0.89105272 0
-6.0223012 2.0537655 -0.77725756 0
-18.300661 6.0603724 -1.1151267 0
-9.1565351 3.0286136 -0.87061787 0
-7.1050091 2.3433971 -0.7901125 0
-6.1367254 2.012738 -0.79751098 0
-34.973598 11.116222 -1.5244889 0
-9.2004242 2.9334354 -0.87565172 0
-5.4639664 1.7442427 -0.81567109 0
-35.42115 10.918281 -1.5454422 0
-13.331127 4.0992613 -1.0565821 0
-7.2937298 2.2418337 -0.81049776 0
-5.4080887 1.6598082 -0.80047119 0
-44.860191 13.285173 -0.92519689 0
-18.398592 5.4266768 -1.1099085 0
-13.444302 3.938756 -1.0617404 0
-9.4984837 2.7761562 -0.90125811 0
-5.4022174 1.5799041 -0.79539335 0
-13.307607 3.775423 -1.0462822 0
-7.4572239 2.1155744 -0.82579374 0
-56.748791 15.57718 0.12911864 0
-31.181953 8.4980774 -1.3083428 0
-9.5666494 2.6109335 -0.90630007 0
-5.411129 1.4798744 -0.79033363 0
-57.318047 15.059736 0.12811361 0
-18.371918 4.8040233 -1.0943846 0
-9.7959137 2.5540659 -0.92681515 0
-6.417768 1.6705456 -0.82292533 0
-18.415205 4.6442204 -1.0943668 0
-7.6150689 1.9244975 -0.84102619 0
-18.814667 4.61098 -1.1253144 0
-6.4518843 1.59034 -0.82794058 0
-13.356387 3.1917584 -1.0359528 0
-5.4393024 1.3097121 -0.78525913 0
-13.410522 3.1115458 -1.0410209 0
-6.3257313 1.4716032 -0.8025372 0
-18.640213 4.1739678 -1.1045567 0
-6.370338 1.4362478 -0.80761695 0
-10.001972 2.1881864 -0.94202328 0
-18.678146 3.9743869 -1.1044848 0
-6.5198069 1.3949836 -0.83294201 0
-10.005839 2.0784409 -0.94193804 0
-18.831219 3.7887735 -1.1097103 0
-6.5540805 1.3247705 -0.83296788 0
-9.9946423 1.9588305 -0.9368155 0
-18.894136 3.5839868 -1.1147004 0
-6.7335916 1.2882645 -0.86336458 0
-10.058562 1.853548 -0.94188583 0
-18.646664 3.3269751 -1.0938908 0
-7.0081091 1.2559341 -0.90900373 0
-10.047436 1.7389377 -0.93676174 0
-18.899862 3.150496 -1.1093688 0
-7.3427048 1.2331022 -0.95979035 0
-10.166441 1.6431799 -0.95197034 0
-6.4408998 1.0411561 -0.96744752 0
-13.264879 2.0410678 -1.0048047 0
-7.5869207 1.166133 -1.0003266 0
-18.821041 2.7525926 -1.0988537 0
-10.059803 1.46953 -0.93656266 0
-6.449894 0.9362058 -0.96238184 0
-18.944582 2.6021345 -1.1040267 0
-8.6020927 1.1824862 -0.96279407 0
-28.429373 3.7000751 -1.1279099 0
-10.048249 1.3050393 -0.93139911 0
-6.4039192 0.83173317 -0.95217502 0
-10.037648 1.2403052 -0.92631328 0
-18.715818 2.1955183 -1.083131 0
-7.6593728 0.90100819 -1.005271 0
-10.091604 1.1301333 -0.93135297 0
-18.428644 1.953748 -1.0622352 0
-7.5485082 0.80211353 -0.98491788 0
-18.422546 1.8342565 -1.062114 0
-9.2143364 0.91300082 -1.0440402 0
-31.571587 2.9078133 -1.279862 0
-10.62002 0.97618538 -0.99249542 0
-6.3566346 0.58243984 -0.93683898 0
-13.186261 1.1146442 -0.98882687 0
-7.5069828 0.63277107 -0.97466385 0
-18.438858 1.4256279 -1.0618064 0
-9.1074419 0.69939095 -1.028594 0
-13.43981 0.9580791 -1.0093025 0
-6.3605042 0.45756665 -0.93673193 0
-9.0615387 0.59501326 -1.0183908 0
-13.418492 0.80873704 -1.0091201 0
-6.3848686 0.38745317 -0.94172776 0
-8.9956474 0.49079674 -1.0081389 0
-13.60223 0.66769767 -1.0244422 0
-6.3742671 0.31763032 -0.93663597 0
-8.9647961 0.39128587 -1.0029732 0
-13.565918 0.51348424 -1.019222 0
-7.4989157 0.28347579 -0.96932733 0
-18.161369 0.55608153 -1.0353876 0
-8.9587717 0.27161425 -1.0028516 0
-18.225389 0.44100472 -1.0404382 0
-7.4830666 0.18378782 -0.96919739 0
-11.393121 0.20705597 -1.0786922 0
-18.34366 0.23579542 -1.0505505 0
-7.4823551 0.09894447 -0.96912038 0
-11.392088 0.082431659 -1.0785772 0
-42.868511 0.043844592 -0.81978631 0
-11.386475 0.0076972381 -1.0784959 0
-6.3716016 0.0030459682 -0.9363426 0
-14.705653 -0.093673363 -1.1264434 0
-6.3662734 -0.036857169 -0.93628943 0
-8.9456482 -0.10739632 -0.99747896 0
-15.089186 -0.26616725 -1.1672229 0
-6.3657064 -0.10676328 -0.93622208 0
-8.939889 -0.20211838 -0.99737406 0
-48.166523 -1.4420867 -0.95633817 0
-11.353681 -0.34101298 -1.0780994 0
-6.3500409 -0.19153322 -0.93110514 0
-11.353096 -0.41578904 -1.07803 0
-18.145664 -0.76888841 -1.0341858 0
-7.4340706 -0.30992177 -0.96362209 0
-15.085571 -0.72953385 -1.1667974 0
-7.4286957 -0.35979176 -0.95856369 0
-15.084773 -0.834185 -1.1667074 0
-6.3238339 -0.34613454 -0.93089747 0
-11.311007 -0.68965876 -1.0726801 0
-18.367144 -1.2289591 -1.049318 0
-7.4027071 -0.48935351 -0.95837939 0
-15.112745 -1.1034803 -1.1715337 0
-6.3180013 -0.45595011 -0.93077743 0
-8.8911018 -0.69558316 -0.99680531 0
-15.0965 -1.2727801 -1.1713455 0
-6.3074923 -0.52578366 -0.92568624 0
-8.87537 -0.79523313 -0.99667752 0
-15.105312 -1.4372731 -1.1712151 0
-6.2819805 -0.59550434 -0.92556071 0
-8.8896484 -0.89511216 -0.99661994 0
-15.074107 -1.6064651 -1.1709929 0
-6.2914639 -0.66548938 -0.93051636 0
-8.8489876 -0.98957825 -0.99143374 0
-15.057956 -1.7707698 -1.1708037 0
-6.2610164 -0.73017746 -0.92537856 0
-8.8333254 -1.0842342 -0.99130595 0
-15.041787 -1.9400784 -1.1706161 0
-6.2604895 -0.80508953 -0.92531204 0
-8.8176374 -1.183892 -0.99117923 0
-15.020674 -2.1043499 -1.1704156 0
-7.2939057 -1.0225835 -0.94762075 0
-15.010007 -2.2039301 -1.1703006 0
-6.2197866 -0.90965813 -0.92011154 0
-8.771596 -1.3381945 -0.99092829 0
-14.963923 -2.3680267 -1.1700449 0
-6.2143168 -0.97953665 -0.9200331 0
-8.7509851 -1.4328221 -0.98578966 0
-14.962858 -2.5324523 -1.1698794 0
-6.1888928 -1.044274 -0.91990077 0
-8.7403612 -1.5275283 -0.99065423 0
-14.981692 -2.7120299 -1.174733 0
-6.1884041 -1.1191953 -0.91981828 0
-14.956103 -2.8065131 -1.1745601 0
-7.226717 -1.3565228 -0.9471072 0
-21.341488 -4.1663871 -1.2887995 0
-8.719223 -1.7069905 -0.99040174 0
-33.103886 -6.7037601 -1.3699915 0
-11.245057 -2.2846241 -1.0909864 0
-6.1475935 -1.2487575 -0.91956043 0
-14.943972 -3.1503131 -1.1791505 0
-8.6584797 -1.8312668 -0.98510599 0
-32.486641 -7.1022892 -1.3430365 0
-11.263923 -2.4692593 -1.0958233 0
-6.1120257 -1.3434086 -0.91436636 0
-14.927532 -3.3894181 -1.1838448 0
-7.1650701 -1.6256454 -0.94664443 0
-21.271509 -4.9928169 -1.2977238 0
-8.5874014 -2.0153556 -0.97972107 0
-32.097885 -7.761579 -1.3313586 0
-11.207468 -2.7181647 -1.0954065 0
-6.0862288 -1.4780895 -0.91414475 0
-14.865611 -3.7228837 -1.1833237 0
-7.1041851 -1.779973 -0.94132006 0
-21.293602 -5.4961562 -1.3072271 0
-8.5113621 -2.1994264 -0.97432852 0
-31.913944 -8.4673367 -1.3301424 0
-11.126101 -2.9619131 -1.094937 0
-6.040463 -1.6126412 -0.91388106 0
-14.798761 -4.0563321 -1.1827947 0
-7.0533237 -1.9343802 -0.94101942 0
-21.245918 -5.9840236 -1.3115758 0
-8.4453878 -2.3785794 -0.97395909 0
-31.765095 -9.1833658 -1.3290067 0
-10.969988 -3.1801858 -1.079309 0
-5.9898028 -1.7371713 -0.90860689 0
-14.831756 -4.4204488 -1.1974797 0
-6.9875393 -2.0837014 -0.93568897 0
-21.278101 -6.5074296 -1.3210977 0
-8.3893852 -2.5678134 -0.97361541 0
-31.411804 -9.8380995 -1.3224435 0
-14.835446 -4.6697021 -1.2022163 0
-8.3690023 -2.6425233 -0.97348237 0
-5.9240804 -1.8766015 -0.90828812 0
-14.849666 -4.8193531 -1.2070912 0
-6.9117136 -2.2479486 -0.93032169 0
-21.389938 -7.1111574 -1.3407263 0
-8.3233576 -2.771955 -0.97322917 0
-31.128157 -10.588059 -1.3209585 0
-10.722643 -3.6571822 -1.0681823 0
-5.8634777 -2.0010922 -0.90299833 0
-14.733118 -5.1425061 -1.2064577 0
-6.8410296 -2.3922689 -0.924986 0
-21.44219 -7.6596603 -1.3602779 0
-8.2275476 -2.9459639 -0.96780682 0
-5.8280492 -2.0907872 -0.90281188 0
-30.974396 -11.383905 -1.3247541 0
-14.631931 -5.4009962 -1.205938 0
-8.182169 -3.0304906 -0.9676013 0
-5.7877889 -2.1504798 -0.89764833 0
-21.479767 -8.1632442 -1.374851 0
-10.556002 -4.0201049 -1.0623822 0
-6.7451973 -2.5763822 -0.92454565 0
-30.67688 -11.969476 -1.3184221 0
-10.545513 -4.1247869 -1.0672481 0
-5.7523136 -2.2551742 -0.89744747 0
-14.4653 -5.7786736 -1.2051339 0
-6.6847787 -2.6758623 -0.91929328 0
-21.561827 -8.7967234 -1.3943967 0
-8.0311365 -3.2790132 -0.95696187 0
-30.71324 -12.776846 -1.3326954 0
-10.3847 -4.3331804 -1.0566411 0
-5.6868134 -2.3746731 -0.89715528 0
-14.388834 -6.1221485 -1.2095959 0
-6.5992193 -2.8151407 -0.91393757 0
-21.509531 -9.3345623 -1.4037236 0
-7.9205008 -3.4429953 -0.95152175 0
-30.490429 -13.47766 -1.3364456 0
-10.258852 -4.5518155 -1.0561105 0
-5.6163502 -2.4941573 -0.89185619 0
-14.292473 -6.4605231 -1.2140218 0
-6.5037498 -2.9443791 -0.90856564 0
-21.442356 -9.8723249 -1.4130214 0
-7.765058 -3.5817389 -0.94099784 0
-14.236684 -6.6645679 -1.2186823 0
-6.4634352 -3.0290306 -0.90837741 0
-14.191385 -6.753993 -1.2134783 0
-6.4432673 -3.0738585 -0.90828431 0
-10.032864 -4.8496065 -1.045251 0
-29.796507 -14.61356 -1.328649 0
-6.3880906 -3.1334505 -0.90308654 0
-9.9724922 -4.958971 -1.0449971 0
-29.720158 -14.986748 -1.3331083 0
-6.3329105 -3.1930482 -0.90289068 0
-9.8971701 -5.0632591 -1.039717 0
-29.89809 -15.491385 -1.348057 0
-6.2976799 -3.2627652 -0.90273452 0
-13.979315 -7.3509359 -1.2223849 0
-5.4250965 -2.852814 -0.88601506 0
-7.4837584 -3.9893172 -0.92990434 0
-13.953673 -7.5352874 -1.2271475 0
-6.2223759 -3.3672144 -0.89745021 0
-13.913365 -7.6347618 -1.2269583 0
-5.3648052 -2.9474256 -0.88577843 0
-7.3784709 -4.1035013 -0.92453921 0
-20.980532 -11.828006 -1.4450395 0
-6.137146 -3.461623 -0.89214945 0
-9.6408825 -5.5056825 -1.0386662 0
-30.26059 -17.507534 -1.407061 0
-6.0819821 -3.5262511 -0.8869611 0
-9.570611 -5.6100368 -1.0384036 0
-30.139505 -17.885477 -1.4114318 0
-6.0368443 -3.585938 -0.88679051 0
-9.4953871 -5.709372 -1.0331324 0
-30.147999 -18.349127 -1.4210453 0
-5.9867125 -3.6456037 -0.88661265 0
-9.4251652 -5.808742 -1.0328724 0
-30.121674 -18.787592 -1.430593 0
-5.9315958 -3.7052491 -0.88142741 0
-11.921443 -7.5365481 -1.0572774 0
-5.1141572 -3.2359428 -0.87489247 0
-7.0226536 -4.4958568 -0.9083159 0
-11.392735 -7.3784242 -1.0111598 0
-5.8564143 -3.7997606 -0.88115573 0
-17.850252 -11.741403 -1.2476637 0
-6.9325619 -4.5702481 -0.90303576 0
-30.038034 -20.053247 -1.4593078 0
-9.1645527 -6.1365457 -1.0269614 0
-4.9989901 -3.350316 -0.86450922 0
-10.778882 -7.3245935 -0.95475399 0
-5.7412643 -3.9090617 -0.87578344 0
-10.644088 -7.3337169 -0.94442475 0
-6.7824602 -4.6892591 -0.89257312 0
-15.237624 -10.656487 -1.0474269 0
-5.6811686 -3.9786997 -0.87057817 0
-38.147118 -27.079994 -0.87246633 0
-14.848505 -10.579099 -1.0215774 0
-6.6823711 -4.7786112 -0.8872633 0
-29.450609 -21.300617 -1.4669019 0
-8.9190302 -6.4695201 -1.0260975 0
-4.8586974 -3.5295901 -0.86401784 0
-18.337572 -13.465937 3.4476762 0
-9.9652548 -7.3345079 -0.8928349 0
-18.377802 -13.580635 0.77765012 0
-9.8903723 -7.3440313 -0.88764942 0
-5.5260649 -4.1128216 -0.86509717 0
-13.407326 -10.100828 -0.91860998 0
-6.5123119 -4.9175434 -0.88173985 0
-29.073931 -22.230558 -1.4752566 0
-8.7935104 -6.7483783 -1.0355649 0
-4.7385964 -3.6440129 -0.8586303 0
-28.948448 -22.533909 -1.4796565 0
-9.6154709 -7.507122 -0.87683451 0
-6.4072375 -5.0219045 -0.87638199 0
-4.6885815 -3.6887851 -0.8534615 0
-12.474504 -9.9303379 -0.85650504 0
-6.3422709 -5.0615335 -0.87118328 0
-28.657564 -23.140451 -1.4883984 0
-8.2846222 -6.710505 -0.98435402 0
-5.3109455 -4.3166862 -0.85438001 0
-11.98069 -9.8424816 -0.82539058 0
-6.2572064 -5.1560297 -0.87088788 0
-28.416857 -23.677528 -1.4923292 0
-8.0152102 -6.6990147 -0.95871043 0
-4.5585008 -3.8232191 -0.85301423 0
-8.8819103 -7.5228643 -0.82004201 0
-5.1959443 -4.4161167 -0.85400379 0
-11.312349 -9.7186956 -0.78389549 0
-6.1222105 -5.2752705 -0.87044871 0
-11.23737 -9.7831497 -0.78365791 0
-5.1160059 -4.4657393 -0.84876394 0
-8.1043911 -7.149024 -0.74351835 0
-5.0909691 -4.50562 -0.84866881 0
-5.071002 -4.51053 -0.84361899 0
-5.0610266 -4.5154834 -0.84358418 0
-5.0460296 -4.5254159 -0.8435427 0
-5.0360327 -4.5353694 -0.8435086 0
-5.9473562 -5.384356 -0.85993361 0
-7.3317757 -6.6703858 -0.89209986 0
-7.869844 -7.1877213 -0.72792161 0
-10.68852 -9.8149338 -0.75232887 0
-7.8964705 -7.2679071 0.51709414 0
-7.8634195 -7.2578664 1.7721769 0
-7.2120318 -6.6797619 -0.88180852 0
-7.8657169 -7.3076525 0.017197311 0
-7.9173207 -7.3779769 1.2771469 0
-7.9325757 -7.4230361 1.5371515 0
-7.9129586 -7.4379458 1.7972101 0
-4.2886348 -4.0371532 -0.83716643 0
-4.9061146 -4.6397953 -0.83810759 0
-15.986267 -15.291857 -0.77516901 0
-6.9626284 -6.678503 -0.86122048 0
-4.2486048 -4.0920153 -0.84202683 0
-7.5204058 -7.3107944 -0.7119993 0
-4.8162036 -4.6994152 -0.83784556 0
-9.8456831 -9.7104044 -0.7054522 0
-5.6526337 -5.592895 -0.84906125 0
-15.16352 -15.152241 -0.74337363 0
-6.6932011 -6.7171645 -0.84056747 0
-4.1387291 -4.1666312 -0.83670545 0
-7.355504 -7.4748292 -0.71148539 0
-4.6913543 -4.7839112 -0.83248377 0
-9.4665642 -9.7533226 -0.6845417 0
-5.4878941 -5.6771431 -0.83861256 0
-14.325947 -14.962746 -0.70660961 0
-6.4587145 -6.7710238 -0.82498145 0
-4.0338693 -4.2412906 -0.83139741 0
-7.0064292 -7.4481678 -0.68571222 0
-4.5764847 -4.8784747 -0.82714355 0
-8.928196 -9.6106958 -0.65342474 0
-5.3331432 -5.7664652 -0.83318877 0
-12.871205 -14.051017 -0.6290102 0
-6.2590938 -6.8600707 -0.81446075 0
-3.9190445 -4.3109345 -0.82608223 0
-6.8018165 -7.5521407 -0.6801666 0
-4.4516931 -4.958024 -0.82179594 0
-8.514348 -9.583662 -0.62751901 0
-5.1784325 -5.850822 -0.82777369 0
-11.72034 -13.375764 -0.56693661 0
-6.084404 -6.9692545 -0.81398702 0
-3.8142095 -4.3856401 -0.82578754 0
-6.3682318 -7.4002986 -0.63931584 0
-4.3219128 -5.0375814 -0.82144952 0
-8.1204605 -9.5617933 -0.61166751 0
-5.0436225 -5.9652858 -0.82739627 0
-11.062431 -13.202581 -0.54061496 0
-5.9146867 -7.0934958 -0.80853224 0
-3.7044141 -4.4553514 -0.82049298 0
-6.233366 -7.5746398 -0.64389837 0
-4.2021184 -5.1272044 -0.81612456 0
-7.6669302 -9.4447956 -0.58076096 0
-4.8690653 -6.0196357 -0.81697273 0
-10.399652 -12.984524 -0.50932968 0
-5.7699142 -7.2378616 -0.81311953 0
-3.5846882 -4.5100508 -0.81519139 0
-6.0288682 -7.6587644 -0.63839674 0
-4.0624499 -5.1867828 -0.81078017 0
-41.362194 -53.308109 1.7903097 0
-5.9739242 -7.73352 -0.64323485 0
-4.007586 -5.2116265 -0.80564642 0
-7.1435876 -9.3775501 -0.55468619 0
-4.6545625 -6.133893 -0.81143749 0
-9.7964373 -13.031603 -0.4930217 0
-5.5851951 -7.4670892 -0.81757951 0
-3.420084 -4.589684 -0.80478597 0
-5.7744408 -7.8227205 -0.63775623 0
-3.877912 -5.2762809 -0.8053267 0
-6.8444743 -9.411294 -0.54404223 0
-5.4853935 -7.5716991 -0.82230532 0
-3.8230386 -5.3061409 -0.80019796 0
-6.7099438 -9.3907614 -0.53877103 0
-4.435132 -6.2381992 -0.80091488 0
-8.9643917 -12.733114 -0.4564856 0
-5.3507485 -7.6362109 -0.81699347 0
-3.2654593 -4.6794 -0.80440712 0
-5.60466 -8.107028 -0.64724219 0
-3.688405 -5.365819 -0.79488432 0
-6.4457221 -9.4597111 -0.52819753 0
-4.2606344 -6.2876878 -0.79553235 0
-8.5955439 -12.796494 -0.45070699 0
-6.380847 -9.5444355 -0.53302157 0
-5.1413445 -7.7304916 -0.81151736 0
-4.1759248 -6.3024545 -0.7903471 0
-3.1208825 -4.7341561 -0.79407859 0
-8.2120371 -12.585054 -0.43005916 0
-5.4299726 -8.3613796 -0.65675628 0
-4.0961533 -6.3372459 -0.78517151 0
-3.0660362 -4.7640824 -0.79395127 0
-7.9480362 -12.479065 -0.4195964 0
-5.4098663 -8.5362864 -0.67162764 0
-4.0014615 -6.3470001 -0.77998126 0
-3.0062082 -4.7889991 -0.79382026 0
-7.7188706 -12.423207 -0.41418204 0
-5.4096608 -8.751255 -0.68652153 0
-3.9167371 -6.3667946 -0.77980483 0
-2.9563398 -4.8289528 -0.79370201 0
-7.3703299 -12.157023 -0.3936412 0
-5.4442921 -9.0263243 -0.71145403 0
-3.8369894 -6.3966131 -0.7746371 0
-2.8865669 -4.8388534 -0.78856349 0
-7.1312585 -12.061195 -0.38323364 0
-6.3849216 -10.854023 -0.31738254 0
-6.3204961 -10.798836 -0.017286569 0
-10.659007 -18.306217 -0.2220116 0
-7.016644 -12.105768 -0.38299623 0
-5.8073363 -10.082305 -0.54165459 0
-4.483583 -7.818541 -0.78019702 0
-3.1799638 -5.5748739 -0.77877128 0
-10.31528 -18.269875 -0.21639594 0
-5.7773027 -10.282168 -0.55150676 0
-4.3689871 -7.8232436 -0.77498472 0
-3.5978019 -6.4711199 -0.76414847 0
-2.7270622 -4.9337382 -0.78821301 0
-6.553443 -11.969244 -0.36220506 0
-5.0853186 -9.3502197 -0.72064447 0
-3.528017 -6.5159998 -0.76900089 0
-2.6722381 -4.9637065 -0.78809798 0
-6.3939958 -11.998724 -0.36191002 0
-4.9558063 -9.3548622 -0.71540809 0
-3.448298 -6.5408611 -0.76384568 0
-2.6074746 -4.9736547 -0.78297436 0
-9.1799269 -17.690943 -0.19459742 0
-6.3688607 -12.338555 -0.37672898 0
-5.7964659 -11.297043 -0.61612916 0
-4.7964044 -9.3944426 -0.71010554 0
-3.9854221 -7.8523526 -0.7542783 0
-3.3187773 -6.570652 -0.75860023 0
-2.8560758 -5.689487 -0.77312911 0
-8.7317324 -17.574429 -0.18386325 0
-5.6071472 -11.361493 -0.61077809 0
-3.8608866 -7.8670974 -0.7490567 0
-2.7863276 -5.7094221 -0.76799953 0
-8.4826841 -17.568598 -0.18344623 0
-5.4278808 -11.31101 -0.60548961 0
-3.7662427 -7.8919191 -0.74888384 0
-2.7165906 -5.7243648 -0.76787186 0
-7.3742676 -15.680758 1.0827692 0
-7.3791747 -15.785745 1.0877929 0
-2.3583698 -5.0535727 -0.7775017 0
-2.3483968 -5.0635772 -0.77748251 0
-6.213654 -13.552848 -0.42104355 0
-4.3182001 -9.4733343 -0.69427037 0
-3.0297797 -6.6952987 -0.75806904 0
-2.2886097 -5.0835781 -0.77237809 0
-6.1039753 -13.712529 -0.42582265 0
-4.2036405 -9.4931049 -0.69408035 0
-2.9600387 -6.7302427 -0.75794399 0
-2.2288308 -5.0985847 -0.77227592 0
-5.9495521 -13.767121 -0.42556652 0
-4.0691643 -9.4778433 -0.68887782 0
-2.8753622 -6.7401605 -0.75280845 0
-2.1690314 -5.1235976 -0.77217627 0
-5.8149896 -13.886773 -0.43033329 0
-3.9595776 -9.5126524 -0.68370116 0
-2.7956617 -6.7600985 -0.75268018 0
-2.0993156 -5.113596 -0.76706982 0
-5.6158285 -13.831299 -0.42005 0
-3.840064 -9.5124502 -0.68352032 0
-2.7209406 -6.7900558 -0.75255919 0
-2.0445087 -5.1436329 -0.76697886 0
-5.4265828 -13.810868 -0.41478285 0
-3.7205355 -9.5222607 -0.67834389 0
-2.6362698 -6.7999997 -0.74743271 0
-3.088825 -8.0159702 -0.72779429 0
-2.6014075 -6.7999778 -0.7473824 0
-1.9648199 -5.1686883 -0.76685202 0
-5.1875553 -13.820349 -0.41444072 0
-3.5561898 -9.5370235 -0.67310739 0
-2.9692984 -8.0258503 -0.72262311 0
-2.5018153 -6.8049307 -0.74223793 0
-2.1437445 -5.8692403 -0.75194323 0
-1.8751873 -5.1687355 -0.76172185 0
-11.40861 -31.857609 0.27083278 0
-6.6940541 -18.833292 -0.1904515 0
-4.8738546 -13.809722 -0.40901431 0
-4.0183969 -11.473062 -0.57333517 0
-3.3271127 -9.5667362 -0.66778815 0
-2.7800739 -8.050705 -0.71735644 0
-2.3424537 -6.8348932 -0.73701215 0
-2.3225229 -6.8348837 -0.73698747 0
-2.3076017 -6.8298836 -0.73696613 0
-1.9744262 -5.8892875 -0.74170673 0
-1.7257808 -5.1888556 -0.75151277 0
-9.3935614 -28.588087 0.2728388 0
-6.166234 -18.912113 -0.18475369 0
-4.4655504 -13.813996 -0.39848635 0
-3.689748 -11.507593 -0.56790423 0
-3.058219 -9.6064663 -0.66243207 0
-2.5460451 -8.0605688 -0.71205056 0
-2.1482456 -6.8598862 -0.73175502 0
-2.1333239 -6.8548903 -0.73173499 0
-1.8250369 -5.9143782 -0.74150729 0
-1.5962939 -5.2240114 -0.75133812 0
-9.2483034 -30.617329 0.27333209 0
-5.6782622 -18.976143 -0.18415305 0
-4.1020751 -13.833441 -0.39804181 0
-3.3860238 -11.522232 -0.56253338 0
-2.8092785 -9.6212749 -0.65712488 0
-2.7794187 -9.5962486 -0.65709305 0
-2.3219771 -8.0955105 -0.70677245 0
-1.9540684 -6.8699293 -0.72651505 0
-1.6706647 -5.9344959 -0.73631716 0
-1.4618504 -5.2391896 -0.74617076 0
-9.8833456 -35.857861 0.27329656 0
-5.2002974 -19.045301 -0.18359879 0
-3.1171997 -11.526978 -0.55722225 0
-2.1726141 -8.1105013 -0.70659804 0
-1.5760719 -5.9445949 -0.73120475 0
-9.5699062 -36.607082 1.1537192 0
-4.9563007 -19.154915 -0.18332428 0
-3.5693643 -13.912791 -0.39243165 0
-2.9280353 -11.521831 -0.55201602 0
-2.4159715 -9.6110792 -0.64668584 0
-2.0182953 -8.1005106 -0.69642961 0
-1.6951817 -6.8750625 -0.71622241 0
-1.44663 -5.9347315 -0.72606301 0
-1.27266 -5.264514 -0.74095058 0
-8.7385168 -36.705402 1.1495765 0
-4.5032949 -19.139271 -0.17786264 0
-3.2457724 -13.927485 -0.38709852 0
-2.654247 -11.501665 -0.54673648 0
-2.1870017 -9.5810337 -0.63645184 0
-1.8241305 -8.0955582 -0.69123173 0
-1.535868 -6.8851933 -0.71105671 0
-1.3122233 -5.9399242 -0.72092116 0
-1.1531745 -5.2747464 -0.7408241 0
-7.9419751 -36.933945 1.1503518 0
-4.0602756 -19.128736 -0.17744035 0
-4.0204654 -19.133696 -0.17740223 0
-2.8973026 -13.957235 -0.38676426 0
-2.35059 -11.466547 -0.54145181 0
-1.9381065 -9.5610428 -0.63121629 0
-1.9132167 -9.5510445 -0.63119483 0
-1.6050955 -8.1156855 -0.69102037 0
-1.3467147 -6.8803983 -0.70587456 0
-1.1529239 -5.9551954 -0.72076499 0
-1.0088068 -5.2800579 -0.73568344 0
-6.9513235 -37.097374 1.1512202 0
-3.5326374 -19.128225 -0.17197981 0
-2.538902 -13.937055 -0.38145384 0
-2.0618896 -11.461516 -0.53619921 0
-1.694201 -9.5461159 -0.62600374 0
-1.6743002 -9.5461283 -0.62598622 0
-1.4060035 -8.1208544 -0.68584442 0
-1.1724858 -6.8806272 -0.70072222 0
-1.0035825 -5.9604769 -0.71563303 0
-0.87438762 -5.2853746 -0.73056519 0
-6.0502958 -37.301159 1.1569346 0
-3.0548143 -19.11788 -0.17160174 0
-2.190491 -13.921969 -0.38117716 0
