# .PCD v0.7 - Point Cloud Data file format
VERSION 0.7
FIELDS x y z intensity
SIZE 4 4 4 4
TYPE F F F F
COUNT 1 1 1 1
WIDTH 1378
HEIGHT 1
VIEWPOINT 0 0 0 1 0 0 0
POINTS 1378
DATA ascii
-10.373464 26.562056 6.2482681 0
-5.3670774 13.583479 -1.1116949 0
-10.758706 27.250399 3.6224868 0
-3.8508985 9.6963606 -0.95772314 0
-9.7923174 24.556042 0.82921457 0
-9.6394224 24.205296 5.7350936 0
-9.8419895 24.498087 0.21987064 0
-9.7285748 24.252531 5.1254969 0
-9.5103846 23.710094 8.8118677 0
-9.7837038 24.242706 5.1259699 0
-9.6731949 23.899542 7.5820489 0
-9.6410236 23.69001 3.8027689 0
-9.8550396 24.140985 5.7420778 0
-5.8151469 14.07494 -1.1658666 0
-9.0487881 21.787983 -0.86692441 0
-9.2102871 22.206402 3.5923021 0
-3.9718177 9.5164623 -0.94083536 0
-9.6541386 22.988535 -0.34862742 0
-12.904532 30.648663 3.3058631 0
-9.6885405 23.016462 6.1167483 0
-10.071534 23.713394 0.22574675 0
-10.30356 24.251354 4.5348668 0
-7.1151919 16.687704 4.0754604 0
-10.171284 23.62569 -0.36806896 0
-2.7434509 6.3743553 -1.0286057 0
-6.3727684 14.691759 -1.2398822 0
-8.0939541 18.67753 2.1273401 0
-3.4252071 7.8681879 -0.93129218 0
-10.252609 23.390842 -0.36122563 0
-10.387066 23.730881 4.4682212 0
-6.497735 14.722126 -1.244096 0
-9.5160999 21.434387 -0.85654128 0
-2.7937522 6.3043113 -1.0178463 0
-6.9365354 15.639226 4.6946459 0
-12.525863 27.924967 0.22213891 0
-9.562315 21.339172 4.0595236 0
-11.07795 24.624706 6.5987887 0
-10.466954 23.115294 1.4118999 0
-3.4563158 7.6179895 -0.89973319 0
-7.111352 15.67487 4.7257757 0
-11.332399 24.693514 0.23007999 0
-2.8739493 6.2692928 -1.0170465 0
-3.4717469 7.5228982 -0.88911426 0
-10.039774 21.568447 -1.4183508 0
-14.556544 31.274702 4.2349949 0
-7.782248 16.722178 4.5903125 0
-9.8771973 21.048466 0.77324021 0
-7.9043088 16.885654 4.1853552 0
-10.712839 22.837572 8.7204695 0
-2.9441411 6.2342939 -1.0163308 0
-7.8186083 16.531883 4.5565753 0
-14.414448 30.201141 1.7794048 0
-14.312939 29.974174 6.4650006 0
-15.08169 31.45796 8.4630785 0
-6.9748721 14.582177 6.5205302 0
-7.9680538 16.515633 3.2427282 0
-11.572669 23.843679 5.2114596 0
-3.4350865 7.0363846 -1.0068409 0
-4.7270284 9.6129446 -0.98064172 0
-7.7148628 15.585975 -1.364525 0
-7.1403737 14.522538 6.5320663 0
-3.4703183 6.9863677 -1.0013165 0
-8.1718349 16.317694 -1.4449464 0
-12.516567 24.861359 -1.0571015 0
-8.6963377 17.327166 2.9588883 0
-8.5669479 17.010818 3.8195896 0
-8.0682449 15.998166 5.8112364 0
-8.2528048 16.268953 2.8010836 0
-15.070739 29.560392 7.2627292 0
-9.2251215 18.047337 5.5291419 0
-22.387329 43.250278 -2.0495605 0
-7.6721601 14.930532 6.7688756 0
-3.1648169 6.1091895 -1.014017 0
-8.5674553 16.476984 4.1773553 0
-8.8549995 16.844973 -1.5126603 0
-12.869965 24.380472 -0.39702746 0
-3.2049246 6.0891733 -1.0136145 0
-11.626123 21.983559 5.511435 0
-8.0078278 15.118514 5.13029 0
-9.1734209 17.277744 7.8528123 0
-3.2499826 6.0791821 -1.0132285 0
-3.9578426 7.3582215 -0.89462948 0
-13.085888 24.127874 -1.0292006 0
-9.1559858 16.935213 3.3992684 0
-5.207653 9.5737505 -1.001897 0
-8.1101074 14.949855 6.4119477 0
-8.0435476 14.761253 6.782444 0
-8.9389277 16.349125 8.5058842 0
-9.341157 16.920797 3.4156797 0
-11.997887 21.616268 4.890964 0
-8.5410395 15.380917 5.2728148 0
-8.1741142 14.691467 6.783742 0
-4.0542259 7.2397008 0.45674533 0
-3.3605168 5.9690342 -1.0068452 0
-4.0090833 7.077879 -0.86281025 0
-9.8640385 17.263147 -1.5875058 0
-4.2098284 7.3892961 0.26709986 0
-3.4055977 5.9540401 -1.0064396 0
-9.3868399 16.337128 3.7889717 0
-4.1285419 7.1668653 -0.11236751 0
-9.2382498 15.964361 2.4047487 0
-4.1141372 7.0879717 -0.87210059 0
-8.5005283 14.643088 5.9512868 0
-9.6835165 16.586239 3.3998177 0
-9.0367556 15.443353 4.4760084 0
-4.1117907 7.0033398 0.26835698 0
-7.9132304 13.410777 2.0681732 0
-3.5891831 6.060091 -0.87065005 0
-5.9862976 10.03071 -1.0886228 0
-9.6901445 16.168287 -0.17318365 0
-9.4346037 15.679074 0.26247871 0
-3.5160859 5.8538733 -1.0001315 0
-9.1803112 15.230441 4.8930993 0
-9.711256 15.958124 -0.16698846 0
-8.0741301 13.27598 2.069979 0
-8.7696066 14.375991 3.4194193 0
-8.8032398 14.404178 5.0795779 0
-8.1649256 13.342097 6.3354416 0
-9.9273109 16.12784 4.7288566 0
-9.7038555 15.613544 -1.0153606 0
-9.9405413 15.967984 0.69959748 0
-4.2751641 6.8777642 -0.85489094 0
-6.4356613 10.266837 -1.1366411 0
-9.9453402 15.781459 -0.59949529 0
-7.1376085 11.337985 1.5080416 0
-6.7044835 10.587731 -1.1863593 0
-10.502816 16.540409 0.72067451 0
-4.3552752 6.8678217 -0.85927737 0
-9.991168 15.626415 -0.59341216 0
-3.8991959 6.1203117 -0.90375054 0
-10.30439 16.037716 -0.61827195 0
-3.5671871 5.5783582 -0.95837772 0
-10.585094 16.497932 6.3566542 0
-7.3848577 11.465372 1.8491433 0
-6.9839406 10.768496 -1.2203114 0
-10.036508 15.420429 0.2679455 0
-3.5874021 5.5282588 -0.95298481 0
-10.302921 15.744505 -0.16682538 0
-8.1762829 12.502966 1.6544993 0
-9.5598574 14.61 4.8138003 0
-9.9114313 15.002513 -0.14588195 0
-7.5175595 11.37901 1.535472 0
-7.198854 10.834011 -1.23915 0
-8.1578608 12.343698 6.0103073 0
-3.597856 5.4080353 -0.93231249 0
-10.973855 16.4517 5.9145341 0
-9.7335739 14.480234 0.67547983 0
-4.0098987 5.9700651 -0.89222836 0
-9.961401 14.691286 -1.3790658 0
-9.0493355 13.341576 0.64135051 0
-4.0051613 5.9099159 -0.88696325 0
-10.04307 14.707483 -0.13854328 0
-9.5540152 13.942018 0.27185863 0
-3.6083667 5.2827139 -0.91661561 0
-10.446976 15.125025 -1.007853 0
-11.259945 16.267199 0.72719574 0
-4.6560683 6.7428317 -0.86656725 0
-10.606655 15.220549 -1.0172323 0
-8.1112318 11.661057 1.5881581 0
-7.6538477 10.935057 -1.2765321 0
-10.353173 14.738356 -0.14158913 0
-11.999809 17.077183 3.1933765 0
-10.507648 14.948906 5.0336175 0
-10.423436 14.698491 -0.14092278 0
-9.628624 13.543442 0.65930378 0
-4.0609474 5.7245212 -0.86566567 0
-10.581002 14.776978 -0.57025361 0
-8.3381319 11.631826 0.60479963 0
-12.299798 17.098186 3.2252932 0
-10.909329 15.153543 4.6803255 0
-9.6700048 13.408045 5.8304081 0
-12.434669 17.128668 3.2410507 0
-11.168901 15.299212 -0.60381162 0
-9.171277 12.557279 0.99597228 0
-5.0805511 6.9536276 -0.92470014 0
-9.8247042 13.443654 5.8762755 0
-11.042111 15.092243 9.6216726 0
-10.647942 14.396675 -0.55298638 0
-11.654058 15.739025 2.0974221 0
-13.565674 18.330551 6.7929907 0
-9.7833738 13.144977 1.0372601 0
-5.0810714 6.8283839 -0.90909195 0
-11.59746 15.474839 0.27823889 0
-5.086163 6.8033528 -0.9039371 0
-11.004367 14.614899 -0.14663765 0
-3.6599019 4.8867359 -0.85931981 0
-10.831345 14.300041 -0.97132194 0
-9.7340651 12.94208 7.9031243 0
-11.960241 15.783512 4.9493384 0
-10.771755 14.108566 -0.13078359 0
-3.6800592 4.8466311 -0.85398901 0
-12.588089 16.509836 7.8051553 0
-12.000875 15.688418 4.9400549 0
-10.127315 13.260291 7.214201 0
-9.8869047 12.891279 4.509264 0
-8.6787767 11.266629 1.5988475 0
-11.074416 14.283649 -1.3996519 0
-9.8371468 12.799059 8.3444948 0
-12.392183 16.00523 6.0611801 0
-13.728484 17.656322 3.9421484 0
-10.905842 13.942826 -1.3641593 0
-9.1241741 11.700353 2.0047567 0
-10.938277 14.021934 5.8059168 0
-11.627471 14.850748 3.8214946 0
-10.973431 14.001978 5.806241 0
-12.401845 15.755315 4.0423484 0
-12.331347 15.656417 6.4774265 0
-12.342723 15.6148 4.0176163 0
-11.752896 14.745911 -1.4673651 0
-12.409064 15.610398 3.0730369 0
-5.4911547 6.8889294 -0.94664502 0
-12.175528 15.294474 8.4131565 0
-5.4962549 6.8688731 -0.94651651 0
-10.629886 13.289936 6.8973513 0
-4.3822203 5.4640007 -0.85724282 0
-11.139602 13.832024 5.8031197 0
-12.132805 14.97822 2.9841726 0
-9.4575825 11.609723 -1.4577458 0
-12.540707 15.369431 0.74494016 0
-3.8406029 4.7312627 -0.85236013 0
-13.080604 15.917897 -1.1491526 0
-12.503641 15.191187 1.2005383 0
-4.3877025 5.3486891 -0.84666085 0
-12.451845 15.127618 6.8806758 0
-12.557069 15.119045 0.74120152 0
-12.608055 15.13565 2.1164973 0
-4.4278021 5.3286433 -0.84630215 0
-12.631435 15.037748 -0.62298608 0
-12.660608 15.022058 0.28730181 0
-3.9756644 4.7462697 -0.87153876 0
-11.433452 13.48354 -1.3535956 0
-12.517948 14.711975 -0.60722363 0
-30.41889 35.544212 1.3925604 0
-14.820726 17.349169 4.0256476 0
-14.860926 17.319227 4.026041 0
-12.865276 14.937474 3.5140979 0
-4.5829625 5.3186755 -0.86024094 0
-10.237679 11.761592 -1.5284085 0
-12.540579 14.332352 -1.4803756 0
-12.228736 13.937077 -0.14053187 0
-12.236819 13.879997 -0.57023501 0
-12.649728 14.346214 2.5153747 0
-13.018499 14.724761 3.9810605 0
-10.497772 11.792221 -1.5468878 0
-12.098878 13.525199 -1.3945333 0
-12.693288 14.257751 8.2362261 0
-4.6334882 5.1933322 -0.84933329 0
-10.817251 11.983193 -1.5907208 0
-12.714295 14.029423 -1.0278921 0
-11.106268 12.290699 2.9998596 0
-4.6486897 5.1431918 -0.84400487 0
-4.6637139 5.1381836 -0.84388542 0
-13.179434 14.408817 4.9035239 0
-13.056925 14.143389 -1.4962542 0
-12.866318 13.965921 5.7185516 0
-10.44501 11.318583 5.4701161 0
-13.359844 14.363338 2.5747838 0
-10.775658 11.581468 3.635972 0
-11.845884 12.679722 4.3878269 0
-13.379135 14.263531 5.8854504 0
-13.420558 14.243242 2.5706952 0
-11.278037 11.904092 -1.6174664 0
-13.689725 14.545079 10.291268 0
-10.583042 11.171196 2.8065534 0
-6.1185598 6.4335203 -0.95049727 0
-12.141131 12.751065 6.6794219 0
-10.804664 11.295463 2.4773791 0
-13.628895 14.187452 4.4623032 0
-6.1338611 6.3633652 -0.94508696 0
-11.458757 11.779301 -1.6207888 0
-13.438287 13.81299 4.8477721 0
-13.403897 13.717618 4.8279757 0
-13.69784 13.980988 6.3836875 0
-31.459682 31.822449 4.5006504 0
-13.742658 13.888408 2.5742526 0
-12.385121 12.494934 3.176949 0
-13.331846 13.392271 3.8439198 0
-6.3839569 6.3936949 -0.97365761 0
-6.453845 6.4338808 -0.98339963 0
-13.550662 13.442301 4.8050771 0
-6.4440937 6.373693 -0.97819662 0
-6.5588336 6.4540572 -0.99283707 0
-13.596464 13.31209 4.7959185 0
-11.810433 11.464593 -1.6172504 0
-15.485347 14.960616 -1.6947954 0
-13.461649 13.076287 8.11619 0
-12.080212 11.648162 2.2487099 0
-12.485684 11.997037 2.7247009 0
-14.292988 13.644732 5.953774 0
-13.590008 12.942301 6.1374917 0
-14.432866 13.655236 5.98458 0
-14.453111 13.620173 5.9798498 0
-15.6173 14.555376 -1.6772665 0
-12.031884 11.174605 -1.6096623 0
-14.354206 13.322408 4.4554725 0
-6.4357328 5.9576039 -0.93144083 0
-6.6253109 6.1032052 -0.96590877 0
-6.7799916 6.2186732 -0.99546134 0
-13.855665 12.640957 4.7353401 0
-6.8848853 6.2589245 -1.0049956 0
-6.9199214 6.2589726 -1.0097823 0
-12.442679 11.210311 3.8478112 0
-12.413169 11.129994 3.8329706 0
-14.490544 12.90027 3.0230041 0
-12.845127 11.413766 6.5394402 0
-14.8755 13.093428 4.5095563 0
-12.847456 11.252892 3.1000218 0
-15.721687 13.599142 -1.6226565 0
-12.140015 10.468569 -1.5610646 0
-5.1367054 4.4460654 -0.81789005 0
-13.304199 11.387765 2.7571733 0
-33.468304 28.266026 -1.682555 0
-12.145988 10.243156 -1.5451037 0
-12.126258 10.177991 -1.539953 0
-6.787024 5.7022347 -0.94324672 0
-4.5244746 3.802851 -0.81386828 0
-12.161911 10.027785 -1.5291322 0
-15.620361 12.747495 -1.5597904 0
-41.482548 33.605499 5.358089 0
-4.5997243 3.7476122 -0.81818676 0
-4.6148057 3.7275229 -0.81801367 0
-4.6698174 3.7375615 -0.82772803 0
-4.6699319 3.7024267 -0.82258201 0
-5.3228264 4.1751399 -0.810655 0
-6.6689978 5.1704617 -0.88177311 0
-12.25976 9.3666592 -1.4859229 0
-42.127026 31.889751 5.3185129 0
-6.8440609 5.1857038 -0.90081239 0
-6.8642139 5.15062 -0.90055442 0
-6.8244562 5.0803213 -0.89050925 0
-6.8196421 5.0301533 -0.88533878 0
-6.864738 5.0151539 -0.89001834 0
-6.9148126 5.0051756 -0.89469051 0
-15.607435 11.114463 -1.4584755 0
-4.7909293 3.4362702 -0.81079733 0
-5.3441954 3.7936187 -0.77400434 0
-6.8754826 4.8194985 -0.87419498 0
-12.418165 8.5702629 -1.4419534 0
-15.679244 10.703812 -1.4415365 0
-15.674691 10.598585 -1.4361777 0
-25.48995 17.033098 -1.7848997 0
-4.8464904 3.2755272 -0.79986107 0
-5.4947224 3.6731598 -0.78269351 0
-25.202353 16.446327 -1.7443972 0
-5.4999228 3.6229384 -0.78247607 0
-12.405442 8.0089197 -1.4049852 0
-37.616085 23.947628 -1.6776162 0
-5.5701022 3.5828047 -0.78693521 0
-12.406217 7.8184509 -1.3943037 0
-15.658209 9.7567673 -1.3882666 0
-4.9620948 3.1198015 -0.80363119 0
-7.0422873 4.363029 -0.85658538 0
-15.739067 9.5665321 -1.3871609 0
-4.9573207 3.0444283 -0.79338419 0
-12.457583 7.4777179 -1.3728335 0
-35.548183 21.016897 -1.5287899 0
-5.6907911 3.4020801 -0.78561294 0
-12.438382 7.2771635 -1.3622446 0
-35.700214 20.57663 -1.5214916 0
-5.706049 3.3267553 -0.78026211 0
-12.474039 7.1168146 -1.3565075 0
-5.0977893 2.9339099 -0.80721462 0
-7.2583647 4.1073189 -0.86450517 0
-34.955273 19.347378 -1.4614326 0
-7.1886792 4.0068355 -0.84953964 0
-35.899826 19.555498 -1.5020684 0
-5.8764825 3.2364635 -0.7990185 0
-12.33576 6.6502829 -1.3156946 0
-5.2231684 2.8384998 -0.81619787 0
-15.873857 8.4091759 -1.3375577 0
-5.2333121 2.7983007 -0.81600416 0
-15.914351 8.293992 -1.3369678 0
-5.2734022 2.7781999 -0.82072186 0
-7.4044361 3.8314281 -0.86278868 0
-34.877724 17.629173 -1.4163312 0
-7.4296079 3.7862673 -0.86250889 0
-34.913879 17.363798 -1.4103163 0
-12.382647 6.1590295 -1.2888557 0
-5.3937025 2.7029188 -0.82982028 0
-12.363067 6.0486608 -1.2836107 0
-5.4638076 2.6928933 -0.84441304 0
-15.872019 7.617219 -1.3050488 0
-6.1375093 2.9704635 -0.8117317 0
-29.47086 13.853408 -1.8880243 0
-7.5803685 3.590708 -0.8660754 0
-15.877999 7.3665943 -1.2942472 0
-5.5791202 2.6125832 -0.85353768 0
-7.8305054 3.6011131 -0.89978969 0
-15.998672 7.2114725 -1.298149 0
-5.6143303 2.5572941 -0.85817778 0
-12.010508 5.3308234 -1.2082379 0
-5.6894231 2.5423052 -0.86773145 0
-40.899078 17.701231 -0.60015368 0
-16.069729 6.9459643 -1.2919834 0
-7.7462678 3.3599977 -0.87448573 0
-41.115543 17.371264 -0.59808898 0
-7.7664499 3.3098092 -0.87422991 0
-36.553883 15.154502 -1.4251878 0
-12.141643 5.0402112 -1.2066902 0
-36.395226 14.813385 -1.4100376 0
-6.5936522 2.714767 -0.86353278 0
-12.107244 4.8696027 -1.1963687 0
-36.721729 14.478688 -1.4174227 0
-6.6338701 2.6494982 -0.86313176 0
-11.793038 4.5980539 -1.1522061 0
-37.178074 14.189458 -1.4292934 0
-7.9374104 3.054009 -0.88258302 0
-15.933279 5.9880667 -1.2449256 0
-5.885488 2.2358768 -0.88077569 0
-8.1226053 3.0241947 -0.90154743 0
-37.730522 13.630013 -1.4399419 0
-6.9044485 2.524292 -0.89636493 0
-11.839375 4.2269497 -1.1409203 0
-38.057045 13.280274 -1.4473565 0
-6.9696941 2.4640737 -0.90586185 0
-11.844884 4.0814824 -1.135491 0
-38.278671 12.885166 -1.445191 0
-7.0199208 2.3938358 -0.90540588 0
-11.79042 3.9208047 -1.1253356 0
-38.530289 12.495139 -1.4479058 0
-7.055191 2.3185179 -0.9100163 0
-11.885841 3.8106372 -1.1295625 0
-38.92178 12.150596 -1.4600567 0
-7.0904126 2.2482207 -0.90965009 0
-11.891336 3.665168 -1.1241469 0
-39.273285 11.790903 -1.4673948 0
-7.1756663 2.183068 -0.91903663 0
-8.4394302 2.5225861 -0.92356122 0
-15.933205 4.629178 -1.2013171 0
-6.0068731 1.7684907 -0.8688401 0
-8.5197153 2.4424117 -0.92794478 0
-15.783962 4.3931236 -1.1814637 0
-6.1470861 1.7334991 -0.89303732 0
-11.672832 3.1829817 -1.0840126 0
-40.677681 10.752985 -1.5078397 0
-8.4802265 2.2715752 -0.91770613 0
-15.834972 4.1123891 -1.1805251 0
-6.427434 1.6886742 -0.9415108 0
-8.6005192 2.2015052 -0.93192732 0
-15.715639 3.8964498 -1.1605966 0
-41.52076 9.9989643 -1.5318787 0
-7.2419024 1.7761672 -0.91265261 0
-15.741257 3.7209697 -1.1600541 0
-7.2620363 1.7309808 -0.91244066 0
-15.691672 3.595463 -1.1549981 0
-6.9380569 1.6090963 -1.0287596 0
-8.7762995 1.975899 -0.9454937 0
-15.707253 3.4199624 -1.1495185 0
-7.0533214 1.5490092 -1.0480334 0
-8.9015989 1.9008338 -0.95969379 0
-15.682866 3.234319 -1.1442147 0
-7.5826926 1.5758362 -0.95546842 0
-11.265573 2.263639 -1.0138354 0
-52.956432 10.193657 -0.73590767 0
-8.8120708 1.7248302 -0.94473267 0
-15.44887 2.9026551 -1.1196244 0
-7.0338721 1.3378632 -1.0376308 0
-8.8923645 1.634639 -0.94912314 0
-15.359434 2.7118225 -1.1046461 0
-15.329685 2.6364892 -1.1046278 0
-15.409888 2.5815277 -1.1091173 0
-15.455109 2.5214388 -1.1137716 0
-15.430332 2.4461417 -1.1087301 0
-7.0043797 1.1267011 -1.0222936 0
-6.9994779 1.0915129 -1.0222344 0
-8.4291639 1.2661343 -1.0805874 0
-9.2534246 1.3441709 -0.99170649 0
-9.3685627 1.3193302 -1.006091 0
-9.488719 1.2895076 -1.0204328 0
-11.382998 1.4859399 -1.0115663 0
-11.373148 1.4357035 -1.0115212 0
-11.378298 1.3855196 -1.0114005 0
-11.2484 1.3199408 -0.99190867 0
-27.860514 3.0549614 -1.5542498 0
-8.2349491 0.92405039 -1.0458403 0
-11.273777 1.1995052 -0.99656498 0
-27.826527 2.7390814 -1.5488521 0
-8.2451639 0.83365464 -1.0406182 0
-11.364149 1.0792949 -1.0008987 0
-27.532484 2.4073842 -1.5247085 0
-10.160232 0.89949566 -1.10642 0
-28.734808 2.3231795 -0.93373072 0
-10.16041 0.83420491 -1.1063062 0
-28.70542 2.1276143 -0.92853892 0
-10.065549 0.75864714 -1.0916289 0
-15.144514 1.0457306 -1.0674769 0
-15.214714 0.98572302 -1.0720395 0
-6.920949 0.4629041 -0.99636817 0
-11.915517 0.70430517 -1.062559 0
-29.482471 1.5384977 -0.95882273 0
-8.2011156 0.44664785 -1.0301253 0
-26.565952 1.2064297 -1.4574037 0
-9.9912844 0.46718192 -1.0814838 0
-25.716314 0.99833912 -1.4011841 0
-8.1613674 0.33599365 -1.0251241 0
-26.211924 0.84444124 -1.4285463 0
-8.1414623 0.28567392 -1.0201429 0
-25.942404 0.66314042 -1.4145684 0
-9.9117365 0.26610538 -1.0665314 0
-25.977917 0.49280846 -1.4141365 0
-8.1167088 0.17507124 -1.0150715 0
-12.76239 0.18471754 -1.1526021 0
-25.973772 0.20704406 -1.4137261 0
-8.1169243 0.084623635 -1.014919 0
-8.1270046 0.049475685 -1.0148149 0
-9.8423481 0.0047627143 -1.0564473 0
-15.112729 -0.08823023 -1.0608178 0
-6.86198 -0.024979435 -0.98081028 0
-9.8426218 -0.10571387 -1.0562694 0
-15.313264 -0.25819674 -1.0745969 0
-6.8371177 -0.10047003 -0.97580707 0
-12.563537 -0.28765297 -1.1328442 0
-23.055334 -0.66927165 -1.2215791 0
-8.032568 -0.21714243 -1.0048473 0
-12.46881 -0.42343026 -1.118101 0
-22.310719 -0.89220524 -1.1748677 0
-7.9927068 -0.302683 -0.99491119 0
-12.419127 -0.55909413 -1.1131444 0
-21.936222 -1.1190152 -1.1513691 0
-7.9728904 -0.38819447 -0.99488223 0
-15.745188 -0.89903194 -1.1165886 0
-6.7876353 -0.36715055 -0.97063458 0
-9.7136984 -0.59327322 -1.0411769 0
-16.070839 -1.0936769 -1.1447564 0
-6.7627611 -0.44263837 -0.96563709 0
-9.6889372 -0.69882733 -1.0411477 0
-16.401539 -1.2983335 -1.1778874 0
-6.7579079 -0.51807946 -0.96554756 0
-16.601955 -1.4231228 -1.1967603 0
-7.8984227 -0.6648221 -0.98483896 0
-16.792379 -1.5579295 -1.2106526 0
-6.7130427 -0.60371357 -0.96064007 0
-9.6243982 -0.93004006 -1.0311399 0
-16.902952 -1.7582322 -1.224862 0
-7.858685 -0.80564302 -0.97982669 0
-20.954115 -2.3255737 -1.0945593 0
-7.8387828 -0.85597169 -0.97985411 0
-16.623274 -1.944733 -1.2009968 0
-6.6933341 -0.76471132 -0.96051192 0
-9.5298519 -1.1563611 -1.0262951 0
-16.588722 -2.1304345 -1.2009305 0
-6.6584311 -0.83522844 -0.95558381 0
-9.4950323 -1.2569259 -1.0213383 0
-16.514111 -2.3062382 -1.1960808 0
-6.6335268 -0.90571165 -0.95061028 0
-9.4502106 -1.357518 -1.0164269 0
-16.454494 -2.4819939 -1.1911657 0
-6.6086431 -0.97621119 -0.95063758 0
-9.4454222 -1.4630057 -1.0163212 0
-16.389894 -2.6577826 -1.1912769 0
-6.5887485 -1.05168 -0.94562745 0
-9.3956156 -1.5636277 -1.0164349 0
-16.330267 -2.8335345 -1.1863663 0
-6.5588446 -1.1171932 -0.94569576 0
-9.350769 -1.659216 -1.0115435 0
-16.240602 -2.9993773 -1.181626 0
-6.5289311 -1.1876901 -0.94074845 0
-9.3159485 -1.7647754 -1.0065768 0
-16.170963 -3.175154 -1.1767629 0
-6.4890151 -1.2582148 -0.93584538 0
-12.113346 -2.4472923 -1.107254 0
-21.424599 -4.4701133 -1.1448579 0
-7.5999436 -1.5654396 -0.96012032 0
-12.06358 -2.5779414 -1.1023493 0
-80.329987 -17.808044 -1.2246226 0
-12.048759 -2.6583104 -1.1073344 0
-6.4291925 -1.4043034 -0.93096757 0
-12.048914 -2.7386186 -1.1072555 0
-22.446865 -5.2538643 -1.2190974 0
-7.515172 -1.7416234 -0.95032048 0
-12.00416 -2.8692658 -1.1073332 0
-22.597618 -5.5541687 -1.2330676 0
-7.4852924 -1.8221509 -0.95037448 0
-11.95938 -2.9998937 -1.1024116 0
-22.493126 -5.795166 -1.2333374 0
-7.4503956 -1.8976903 -0.95046628 0
-11.884567 -3.1206069 -1.0976521 0
-22.318514 -6.011333 -1.2239904 0
-7.4054894 -1.9782431 -0.94558585 0
-11.809736 -3.2363198 -1.0929099 0
-22.554365 -6.3414273 -1.2475343 0
-8.9771023 -2.5143447 -0.98740149 0
-15.68356 -4.5060639 -1.1627954 0
-6.2395687 -1.777137 -0.91144693 0
-11.65998 -3.4175327 -1.0834601 0
-6.2246151 -1.8174316 -0.91147578 0
-15.608928 -4.7069697 -1.1629771 0
-7.3107505 -2.19472 -0.94081914 0
-22.040152 -6.8294668 -1.2246078 0
-8.812314 -2.7208755 -0.97299349 0
-31.954082 -10.156847 -1.1231339 0
-11.505295 -3.648952 -1.0739919 0
-6.1547203 -1.9434463 -0.90668154 0
-15.479526 -5.0434842 -1.1633008 0
-7.200861 -2.3358686 -0.9312067 0
-21.866039 -7.3063097 -1.2200463 0
-8.6574593 -2.882199 -0.96359026 0
-31.470203 -10.774861 -1.1099787 0
-11.320568 -3.8704462 -1.0646782 0
-6.0748162 -2.0694854 -0.90192962 0
-15.320053 -5.3700552 -1.158784 0
-7.1109967 -2.4819698 -0.92649448 0
-21.686899 -7.7781692 -1.2205318 0
-8.5326214 -3.0534291 -0.95402849 0
-31.036306 -11.39271 -1.1016227 0
-11.140815 -4.0869083 -1.0553614 0
-6.0048923 -2.1904871 -0.8971566 0
-15.070416 -5.6568151 -1.1447772 0
-7.0211058 -2.6280382 -0.91679013 0
-21.502756 -8.2549925 -1.2210665 0
-8.3977509 -3.2146623 -0.94455016 0
-30.672472 -12.035311 -1.0979452 0
-14.930712 -5.8679523 -1.1403034 0
-8.3377857 -3.2751651 -0.93979383 0
-30.593006 -12.311185 -1.1031513 0
-10.901125 -4.3838787 -1.0412986 0
-5.9000025 -2.3618963 -0.89250541 0
-14.760973 -6.0691609 -1.1359774 0
-6.8762131 -2.8145857 -0.90734136 0
-21.369072 -8.9722176 -1.231196 0
-8.1928759 -3.4264135 -0.9303813 0
-30.204027 -12.928806 -1.0946615 0
-10.716317 -4.5903125 -1.0320364 0
-5.8100295 -2.4779186 -0.88283432 0
-14.551316 -6.3557825 -1.1268116 0
-6.7562509 -2.9407165 -0.89781868 0
-32.78537 -14.641033 -0.38567832 0
-21.245066 -9.5340147 -1.2414112 0
-8.0279684 -3.5927939 -0.92104435 0
-5.7751312 -2.583674 -0.88791311 0
-14.441711 -6.6169558 -1.1321564 0
-6.6562867 -3.0416381 -0.89321494 0
-21.145653 -9.8852024 -1.2466608 0
-7.917994 -3.6936691 -0.91149783 0
-29.52586 -14.058442 -1.0922478 0
-10.401608 -4.9478283 -1.0183263 0
-5.6400609 -2.6747916 -0.87349033 0
-14.30716 -6.9433923 -1.1325867 0
-6.5312848 -3.1577704 -0.88373554 0
-31.762018 -15.731724 -0.38003054 0
-20.851341 -10.377377 -1.2427757 0
-10.266719 -5.1089101 -1.0088683 0
-5.5850878 -2.7705615 -0.86867619 0
-14.112354 -7.1597252 -1.1233972 0
-6.4412909 -3.2586396 -0.87408733 0
-20.756889 -10.728538 -1.2480248 0
-10.141809 -5.2448816 -1.0043828 0
-5.5150714 -2.8412883 -0.86396098 0
-13.982602 -7.3708072 -1.1238878 0
-6.3612885 -3.3394086 -0.86941946 0
-20.522207 -11.010016 -1.2440094 0
-7.6181893 -4.0765796 -0.89767802 0
-28.673256 -15.644544 -1.0954797 0
-6.2913151 -3.4150832 -0.86969054 0
-13.7678 -7.6072965 -1.119799 0
-6.2512908 -3.4454169 -0.86486542 0
-9.811842 -5.4920716 -0.98583412 0
-5.3650422 -2.9978361 -0.85455108 0
-7.4431896 -4.2229433 -0.88841712 0
-28.2141 -16.297375 -1.0923523 0
-7.4081988 -4.2632904 -0.88856971 0
-20.008011 -11.723439 -1.236105 0
-7.3631892 -4.3036456 -0.88375771 0
-28.154867 -16.768473 -1.1023493 0
-9.5919199 -5.7087102 -0.97676361 0
-28.335573 -17.123529 -1.1162467 0
-9.5419617 -5.7691116 -0.97695851 0
-5.2199869 -3.1493578 -0.84513068 0
-13.493621 -8.2952271 -1.1306988 0
-5.9811945 -3.6727533 -0.84599721 0
-19.658651 -12.290931 -1.2374816 0
-7.1631618 -4.4702229 -0.87460947 0
-28.301964 -17.975206 -1.1358804 0
-7.1181488 -4.5105743 -0.86979473 0
-13.464142 -8.6562853 -1.145595 0
-5.0798783 -3.2506185 -0.83573163 0
-9.2419538 -6.0111866 -0.96327674 0
-5.0698943 -3.29088 -0.83575034 0
-9.186965 -6.0615935 -0.96351397 0
-27.632326 -18.503454 -1.1239061 0
-5.7761021 -3.8496032 -0.83686709 0
-19.184399 -13.024185 -1.2393732 0
-6.9230986 -4.6872044 -0.8606323 0
-19.079466 -13.129804 -1.2398465 0
-6.8680868 -4.72259 -0.86086464 0
-4.9448171 -3.4021068 -0.83126283 0
-19.024744 -13.345442 -1.2449774 0
-8.9219112 -6.2633696 -0.9496758 0
-26.922825 -19.167063 -1.1170475 0
-8.8619061 -6.3087826 -0.94994044 0
-4.8597226 -3.4578266 -0.82162571 0
-10.083648 -7.2808967 -0.8282578 0
-5.5609508 -4.0164409 -0.82278454 0
-15.568767 -11.433959 -0.98836136 0
-6.6379318 -4.8692665 -0.84689009 0
-26.438284 -19.714676 -1.1191317 0
-8.7019339 -6.4900465 -0.94559991 0
-4.749619 -3.5388482 -0.81709588 0
-9.6231232 -7.2778144 -0.79552639 0
-5.4458742 -4.1174965 -0.81826973 0
-13.415106 -10.309576 -0.83476257 0
-6.4677973 -4.9654684 -0.83765447 0
-25.893576 -20.212383 -1.1165415 0
-9.3177805 -7.2791142 -0.77702165 0
-6.3877316 -5.0009699 -0.83300555 0
-25.708763 -20.443384 -1.1173029 0
-8.2163658 -6.5323033 -0.90795314 0
-4.6095023 -3.6652398 -0.81266391 0
-17.262222 -13.956685 -0.66334987 0
-9.1327085 -7.3952589 -0.7728548 0
-17.128172 -13.941442 3.480948 0
-17.114723 -13.988715 4.5410357 0
-17.107159 -14.01738 -0.65908563 0
-17.082226 -14.067566 -0.66416228 0
-7.8457785 -6.4637399 -0.86982179 0
-5.1956487 -4.2895374 -0.80433607 0
-17.007402 -14.258207 -0.6644125 0
-7.6755261 -6.4394298 -0.85566795 0
-24.879042 -21.157375 -1.1109946 0
-7.5453115 -6.4149408 -0.8413223 0
-4.4442806 -3.776726 -0.79837549 0
-8.6171169 -7.4325981 -0.74035144 0
-5.0654945 -4.3705916 -0.79490662 0
-11.167018 -9.772213 -0.70121872 0
-5.9422684 -5.2039456 -0.80502093 0
-24.384335 -21.689882 -1.1130949 0
-7.1647229 -6.3665504 -0.8082155 0
-4.3391747 -3.8577235 -0.79880953 0
-7.9008179 -7.1198807 -0.67407775 0
-4.9303532 -4.4516587 -0.79048526 0
-7.3620524 -6.7002678 1.7229762 0
-7.3420596 -6.7154059 1.7228967 0
-7.3320665 -6.7305217 1.7228494 0
-7.3170943 -6.7556481 1.7228111 0
-7.3121114 -6.775753 1.7227924 0
-7.3121338 -6.8058343 1.7278146 0
-7.3121824 -6.840929 1.727849 0
-7.3121939 -6.8660102 1.7328583 0
-7.2814279 -6.8705845 1.9677204 0
-4.203989 -3.9589794 -0.78937101 0
-4.795198 -4.5427952 -0.78606486 0
-15.952704 -15.283987 -0.66393244 0
-7.1886544 -6.8778553 1.2472769 0
-4.7651525 -4.5580044 -0.78119087 0
-7.234745 -6.9674845 -0.62242293 0
-7.2640934 -7.0219393 -0.39224669 0
-9.4944134 -9.237855 -0.59977579 0
-9.5195303 -9.3079071 -0.60459518 0
-9.5596581 -9.3829288 -0.60935557 0
-6.3984952 -6.2949471 -0.73697746 0
-4.0938349 -4.0299597 -0.78483438 0
-6.9994302 -6.9836316 -0.60854709 0
-4.6349893 -4.6340423 -0.77674913 0
-9.1239481 -9.2394247 -0.5815717 0
-5.3866019 -5.4577117 -0.77250111 0
-14.014568 -14.404628 -0.58403838 0
-6.1280856 -6.3012934 -0.71827245 0
-3.9786563 -4.0909433 -0.78033149 0
-6.7040048 -6.9900503 -0.58996606 0
-4.5098214 -4.7100635 -0.77228487 0
-8.7484827 -9.2610731 -0.56336892 0
-5.2364378 -5.5488071 -0.76813889 0
-12.707198 -13.648217 -0.52094793 0
-5.9027634 -6.3425426 -0.70432043 0
-3.8735046 -4.1668987 -0.775756 0
-8.4079418 -9.1773539 -0.54508805 0
-5.1112723 -5.5896006 -0.76370215 0
-11.349382 -12.566489 -0.44835386 0
-5.7525506 -6.3733869 -0.69502902 0
-3.7933717 -4.2075672 -0.77110803 0
-6.4087949 -7.2070637 -0.58622921 0
-4.2845049 -4.8267937 -0.76326406 0
-7.9020877 -9.0091858 -0.5176872 0
-4.9410343 -5.6506982 -0.75447285 0
-10.583131 -12.253915 -0.4173176 0
-5.5723557 -6.4595366 -0.69082749 0
-3.6731904 -4.2685337 -0.76661575 0
-6.0180736 -7.0735917 -0.55821872 0
-4.1442704 -4.8778028 -0.75389826 0
-7.5566239 -9.0107059 -0.5043608 0
-5.4522223 -6.5253196 -0.68634975 0
-4.0942168 -4.9132013 -0.75409675 0
-7.2660136 -8.8215628 -0.48090228 0
-5.3871498 -6.5607643 -0.6866399 0
-4.7107263 -5.7622876 -0.74548674 0
-3.5329337 -4.3296676 -0.75723112 0
-5.6674795 -7.0301938 -0.53493583 0
-3.9790106 -4.9490018 -0.74461484 0
-7.0056543 -8.8227291 -0.47214964 0
-4.5905228 -5.793036 -0.73603797 0
-23.481403 -30.061552 -0.47202864 0
-6.8804755 -8.8232965 -0.46775058 0
-4.5304475 -5.8234563 -0.7362957 0
-9.0907946 -11.82413 -0.36488757 0
-5.1719708 -6.7473617 -0.68751264 0
-3.3927197 -4.4309592 -0.75780106 0
-5.3720875 -7.1068616 -0.52627766 0
-3.793709 -5.0253863 -0.74042737 0
-6.4446507 -8.6498985 -0.43996814 0
-4.3852406 -5.8994832 -0.73192108 0
-8.6351309 -11.76087 -0.3521215 0
-5.3071184 -7.252552 -0.53146708 0
-4.3251624 -5.9298987 -0.73217392 0
-3.2424181 -4.4570193 -0.74847245 0
-8.3496132 -11.631833 -0.343595 0
-5.1768794 -7.2381701 -0.52209699 0
-4.260077 -5.9753995 -0.73244476 0
-3.1873138 -4.487473 -0.74369609 0
-8.0741339 -11.527756 -0.32996616 0
-6.0290051 -8.6317987 -0.42695788 0
-5.0918293 -7.3238115 -0.52742374 0
-4.1699347 -6.0160065 -0.72782969 0
-3.1171842 -4.5130339 -0.74399638 0
-12.430743 -18.280024 -0.16399202 0
-7.7285371 -11.403987 -0.32170317 0
-5.0168018 -7.4244328 -0.53269088 0
-4.064754 -6.0366397 -0.72329569 0
-3.0420308 -4.5335927 -0.73931861 0
-7.3978362 -11.179979 -0.30344018 0
-4.981854 -7.5498991 -0.53774989 0
-3.9695802 -6.0421753 -0.71872449 0
-2.9768889 -4.5440578 -0.73460484 0
-7.112246 -11.005894 -0.28992715 0
-4.8817196 -7.5804701 -0.5381856 0
-3.8844147 -6.0526915 -0.71411228 0
-2.9318125 -4.584497 -0.73477244 0
-6.9720898 -11.051574 -0.29054889 0
-4.806654 -7.6509953 -0.53846872 0
-3.7942502 -6.0632124 -0.70950866 0
-2.8666611 -4.5899582 -0.73006439 0
-6.7165818 -10.91243 -0.28185174 0
-4.736609 -7.7265177 -0.54372621 0
-3.7090852 -6.0737219 -0.70488822 0
-2.8165751 -4.625402 -0.73025215 0
-6.3657656 -10.608425 -0.26372668 0
-4.701664 -7.861979 -0.54876935 0
-3.6138806 -6.0692382 -0.69532156 0
-2.7464139 -4.6258702 -0.72556305 0
-6.3108511 -10.783949 -0.26882932 0
-5.1126537 -8.7663593 -0.40109649 0
-4.2207537 -7.2735386 -0.68148267 0
-3.5086737 -6.0748496 -0.69078863 0
-2.6712413 -4.6364141 -0.72088742 0
-9.1793995 -16.184235 -0.10097364 0
-5.0276341 -8.8919916 -0.40636882 0
-4.1055498 -7.2941794 -0.6769861 0
-2.9721947 -5.3012357 -0.70891297 0
-2.6111314 -4.6769409 -0.72111022 0
-8.7936811 -15.995424 -0.092906237 0
-5.8851647 -10.750734 -0.26080385 0
-4.9075522 -9.0077562 -0.4118 0
-3.9602914 -7.3049397 -0.67261899 0
-2.8820119 -5.3318777 -0.70428085 0
-8.4430571 -15.851553 -0.089633942 0
-4.8877096 -9.2132044 -0.42170075 0
-4.8827381 -9.2483006 -0.42669579 0
-5.454144 -10.397061 -0.23806706 0
-8.0320473 -15.412569 -0.076883078 0
-5.5696363 -10.727061 -0.25225165 0
-5.5797343 -10.807136 -0.25713035 0
-4.8077197 -9.3588257 -0.4319239 0
-3.7348619 -7.3111157 -0.66360939 0
-2.7266722 -5.3529 -0.69493639 0
-7.676414 -15.288769 -0.073611975 0
-4.7878885 -9.5792704 -0.44180605 0
-4.2966719 -8.6354437 -0.59487998 0
-3.0527887 -6.1676846 -0.67271185 0
-2.6465225 -5.3784571 -0.6952498 0
-27.366684 -56.491577 0.45251051 0
-7.3458734 -15.219914 -0.070147246 0
-4.7983041 -9.9898481 -0.46636406 0
-3.4843431 -7.2923818 -0.64972281 0
-2.5663443 -5.3940001 -0.6905781 0
-6.839509 -14.581124 -0.052991062 0
-4.7835412 -10.250302 -0.4861773 0
-3.3841157 -7.2828913 -0.64017153 0
-2.5062168 -5.4144492 -0.69081926 0
-6.558919 -14.396991 -0.049401373 0
-4.6583486 -10.280881 -0.48168954 0
-3.2839179 -7.2834058 -0.6355952 0
-2.4461131 -5.4498954 -0.69102943 0
-6.3134375 -14.277792 -0.045586556 0
-4.9491277 -11.24541 -0.26448771 0
-4.4629259 -10.201633 -0.47261778 0
-3.7506516 -8.6230116 -0.57725286 0
-3.1536522 -7.2891102 -0.63114882 0
-2.6770139 -6.2199717 -0.6592623 0
-2.3358457 -5.4506187 -0.68649864 0
-2.0598986 -4.836144 -0.70329106 0
-8.8576946 -21.163948 0.33718166 0
-5.6617603 -13.589595 -0.024101853 0
-4.9648743 -12.001235 -0.2936652 0
-4.1874089 -10.17781 -0.46382239 0
-3.5252101 -8.6190825 -0.56821549 0
-2.9732985 -7.310101 -0.62688756 0
-2.5266986 -6.2459016 -0.65486372 0
-2.2055757 -5.4915066 -0.68198359 0
-1.9446239 -4.8619995 -0.69873416 0
-6.0414648 -15.362759 1.0893047 0
-1.9145489 -4.8521819 -0.6988641 0
-2.1554632 -5.5018587 -0.68218088 0
-2.1354158 -5.4919586 -0.6822691 0
-1.8844961 -4.8774319 -0.69895291 0
-7.9411521 -20.891724 0.33297053 0
-5.196198 -13.756526 -0.025900126 0
-4.5392613 -12.098059 -0.29536423 0
-3.7966969 -10.174519 -0.45546916 0
-3.1945629 -8.6156654 -0.55959868 0
-2.6977377 -7.3265724 -0.61800456 0
-2.2962003 -6.2722816 -0.64577436 0
-2.0101287 -5.5228267 -0.67774534 0
-1.7692049 -4.8932772 -0.69439948 0
-7.2296214 -20.358677 0.3294175 0
-5.1770372 -14.6774 -0.045031846 0
-4.2236819 -12.064283 -0.28670987 0
-3.5362175 -10.165641 -0.45154676 0
-2.9741085 -8.6016989 -0.5505141 0
-2.5173519 -7.327539 -0.61373866 0
-2.1458857 -6.2931995 -0.64635241 0
-1.8798177 -5.5386968 -0.67324853 0
-1.6539197 -4.9141169 -0.6898278 0
-5.7998562 -17.541615 0.32054013 0
-4.9118743 -14.958596 -0.050837457 0
-3.9231386 -12.045475 -0.28296372 0
-3.2857461 -10.161733 -0.44756874 0
-2.7586737 -8.5927191 -0.54638803 0
-2.3369753 -7.3334913 -0.60944521 0
-1.9955291 -6.2990875 -0.63694155 0
-1.7495385 -5.5695653 -0.67371416 0
-1.5386134 -4.9199476 -0.68527126 0
-6.3264742 -20.650019 1.3359919 0
-1.508546 -4.9151244 -0.68538308 0
-1.5035367 -4.9301987 -0.6853888 0
-5.8317442 -19.502663 0.32276213 0
-4.4762969 -15.090242 -0.052451253 0
-3.5424528 -12.031984 -0.27950975 0
-2.9651153 -10.148118 -0.43886462 0
-2.4931376 -8.5990086 -0.54243255 0
-2.1114898 -7.3496971 -0.60030699 0
-2.0914242 -7.3297954 -0.60041308 0
-1.7900652 -6.3203278 -0.63271236 0
-1.5640875 -5.5857553 -0.66439903 0
-1.3731862 -4.9261084 -0.6808852 0
-5.6677108 -20.788811 0.3235054 0
-4.0705962 -15.051659 -0.054106325 0
-3.2168474 -12.003242 -0.27582052 0
-2.6945994 -10.144274 -0.43492129 0
-2.2676725 -8.6050758 -0.53329813 0
-1.9160471 -7.3357153 -0.59607625 0
-2.2275834 -8.6002693 -0.53346217 0
-2.202528 -8.590374 -0.53356647 0
-1.8659405 -7.3409901 -0.59626353 0
-1.5946268 -6.3364687 -0.62842953 0
-1.3886273 -5.5718503 -0.65507615 0
-1.2227782 -4.9321613 -0.67143846 0
-5.4590793 -22.575178 0.32462832 0
-3.624902 -15.118246 -0.050786108 0
-2.8411329 -11.969692 -0.27232209 0
-2.3839772 -10.130609 -0.43114308 0
-2.0021069 -8.5913277 -0.52933192 0
-1.6955687 -7.351891 -0.59189272 0
-1.9570045 -8.5765257 -0.52951646 0
-1.6604862 -7.3470745 -0.59203041 0
-1.4191891 -6.3275018 -0.62410188 0
-1.2332172 -5.5628476 -0.65066397 0
-1.0823977 -4.9281316 -0.66695178 0
-4.757628 -22.202078 0.32147101 0
-3.2243364 -15.234674 -0.052188933 0
-2.510504 -11.960981 -0.26859978 0
-2.4804473 -11.956092 -0.26871547 0
-2.4503906 -11.951201 -0.26883087 0
-2.043258 -10.082017 -0.42247733 0
-1.7164608 -8.5526457 -0.52044308 0
-1.454998 -7.3331356 -0.58280468 0
-1.238753 -6.3185272 -0.61976266 0
-1.0778145 -5.5588336 -0.64622605 0
-0.94703037 -4.9340858 -0.66242456 0
-0.93701249 -4.9441638 -0.66244662 0
-0.92699748 -4.9492493 -0.66747606 0
-0.91193324 -4.9293261 -0.662552 0
-0.90192145 -4.9444036 -0.6625663 0
-0.89188498 -4.9394817 -0.66261041 0
-0.87685484 -4.9395652 -0.66265595 0
-0.86682451 -4.9396429 -0.66269243 0
-0.8517729 -4.929719 -0.65775251 0
-6.1066031 -36.265797 1.1974436 0
-6.0315504 -36.320976 1.1972315 0
-5.9665394 -36.411144 1.1970886 0
-5.8764009 -36.396343 1.1967485 0
-5.7963109 -36.421528 1.1964852 0
-5.711143 -36.381718 1.1961195 0
-3.3901939 -21.905827 0.31602377 0
-2.2824614 -14.982735 -0.045961082 0
-2.2473845 -14.967849 -0.046105981 0
-2.2173316 -14.972957 -0.04621309 0
-2.1822717 -14.973071 -0.046337068 0
-2.1471951 -14.958184 -0.046480805 0
-2.1121361 -14.958297 -0.046602786 0
-2.0770717 -14.953409 -0.046731532 0
-2.042007 -14.948523 -0.04685989 0
-2.0119486 -14.948629 -0.046971947 0
-1.9768957 -14.95374 -0.047085583 0
-1.9418136 -14.933852 -0.047233969 0
-1.9117664 -14.943958 -0.047331423 0
-1.876702 -14.93907 -0.047458053 0
-1.8416432 -14.939181 -0.047577381 0
-1.8065845 -14.939292 -0.047696382 0
-2.5837002 -21.707985 0.31290174 0
-4.839716 -41.569126 1.3139651 0
-4.7495747 -41.564316 1.3136351 0
-4.6544561 -41.57951 1.3133252 0
-4.5693316 -41.589691 1.3130258 0
-3.9322321 -36.529484 2.0499022 0
-0.53089684 -4.9419708 -0.65380061 0
-0.52086091 -4.9370465 -0.65384078 0
-0.57147276 -5.5370259 -0.6329608 0
-0.63219094 -6.2569752 -0.59690678 0
-0.71825707 -7.2769094 -0.57041264 0
-0.81440771 -8.436779 -0.50372219 0
-0.93588108 -9.9365816 -0.40654394 0
-0.9108187 -9.9216766 -0.40664265 0
-1.0525384 -11.736385 -0.2540299 0
-1.3005989 -14.855905 -0.044524938 0
-1.8322997 -21.504929 0.31009263 0
-3.0525644 -36.742523 1.1871203 0
-2.970958 -36.646553 2.0467186 0
-2.8858466 -36.65173 2.0464439 0
-0.38548917 -4.9379597 -0.64925778 0
-0.42106873 -5.5279584 -0.6284436 0
-0.46678615 -6.2629328 -0.59742844 0
-0.52278578 -7.262897 -0.56605732 0
-0.58389664 -8.4228106 -0.49947813 0
-0.66528147 -9.8876638 -0.40248063 0
-0.76194823 -11.697439 -0.25502571 0
-0.93491209 -14.817056 -0.045776397 0
-1.3013536 -21.421286 0.30822903 0
-1.256271 -21.416405 0.30807129 0
-1.2061882 -21.411528 0.30790624 0
-1.1560793 -21.381651 0.30770981 0
-1.1110021 -21.381769 0.30755994 0
-1.0659142 -21.371885 0.30739781 0
-1.0158266 -21.362007 0.30722854 0
-0.66941911 -14.792874 -0.046654284 0
-0.50139803 -11.653369 -0.2509068 0
-0.39968091 -9.8337221 -0.39838102 0
-0.37963539 -9.8338089 -0.39844641 0
-0.30320066 -8.3540659 -0.49043772 0
-0.2470762 -7.2042685 -0.55697727 0
-0.19608729 -6.2244282 -0.59328997 0
-0.1603675 -5.5095654 -0.62424517 0
-0.13473649 -4.8996735 -0.64005065 0
-0.49492553 -21.313297 0.30551895 0
-0.30872658 -14.743977 -0.047839791 0
-0.21578597 -11.594374 -0.24685577 0
-0.15914905 -9.7996712 -0.39415297 0
-0.11776381 -8.3198929 -0.4910337 0
-0.086679012 -7.185061 -0.55247319 0
-0.060734138 -6.2201924 -0.58869207 0
-0.040020514 -5.4903126 -0.61961472 0
-0.030010708 -5.5053911 -0.62462783 0
-0.014966674 -5.5004625 -0.61967182 0
-0.0043747793 -4.9005594 -0.64041471 0
0.071108013 -21.204664 0.30365768 0
0.08204262 -14.680141 -0.044094443 0
0.089868322 -11.530449 -0.24784276 0
0.096462518 -9.7256823 -0.38999662 0
0.10277803 -8.2658634 -0.48673537 0
0.10380678 -7.1410036 -0.55306792 0
0.10473857 -6.1611023 -0.58422387 0
0.10537641 -5.4762058 -0.62003219 0
0.10595731 -4.8762865 -0.63573778 0
0.53199917 -21.075758 0.30213419 0
0.40765569 -14.646095 -0.045079947 0
0.34539917 -11.496323 -0.24361417 0
0.31193644 -9.6915188 -0.39064506 0
0.28322667 -8.2216558 -0.48229209 0
0.25919914 -7.121769 -0.54851949 0
0.2400856 -6.1518531 -0.58460021 0
0.22572023 -5.4569368 -0.61537385 0
0.21126707 -4.8670082 -0.63602543 0
0.22129704 -4.8670793 -0.63605177 0
0.23633157 -4.862155 -0.63609028 0
0.24636151 -4.862226 -0.63611639 0
0.2564005 -4.8522968 -0.63615346 0
0.26641691 -4.8673682 -0.63616288 0
0.27645135 -4.8624387 -0.63619423 0
0.28649011 -4.852509 -0.63623083 0
0.30151558 -4.8575845 -0.63625753 0
0.3115544 -4.8476548 -0.63629389 0
0.31659967 -4.8377161 -0.63132358 0
0.33161041 -4.8527975 -0.63633943 0
0.34164914 -4.8428683 -0.63637543 0
1.5439614 -20.758064 0.29893544 0
1.5840585 -20.733162 0.29879281 0
1.1391505 -14.468189 -0.042303175 0
0.91666162 -11.348264 -0.24033901 0
0.94171864 -11.338346 -0.24041447 0
0.97175843 -11.348433 -0.24047503 0
0.99681109 -11.343515 -0.24054471 0
1.0168766 -11.323594 -0.2406235 0
1.0419205 -11.328676 -0.24068227 0
1.0669954 -11.298759 -0.24077758 0
1.0920395 -11.303842 -0.24083582 0
1.4247174 -14.408983 -0.04311052 0
2.0799761 -20.629251 0.29736558 0
3.8322594 -37.23489 1.1819789 0
4.5537381 -43.309376 2.3471165 0
0.51215482 -4.8189917 -0.63180327 0
0.58175522 -5.3740845 -0.60634077 0
0.66627616 -6.0441804 -0.57078481 0
0.78560793 -6.9493046 -0.53504002 0
0.91982526 -8.0444107 -0.46912989 0
1.1038176 -9.4595318 -0.37796882 0
1.1288607 -9.4596119 -0.37802413 0
1.362636 -11.22473 -0.24159124 0
1.7654549 -14.274922 -0.044109195 0
2.5609703 -20.420294 0.29591358 0
4.708878 -36.896229 1.1743605 0
5.6202321 -43.335869 2.3544273 0
0.62750292 -4.7947564 -0.63208616 0
0.71211731 -5.3548598 -0.60665464 0
0.81168312 -5.994966 -0.57116675 0
0.9460538 -6.8950934 -0.53047383 0
1.1103035 -7.9852252 -0.46963915 0
1.3293555 -9.3803711 -0.37858364 0
1.3493984 -9.3804455 -0.37863061 0
1.3694452 -9.3755207 -0.37868211 0
1.3894889 -9.375597 -0.37872919 0
1.4095565 -9.350666 -0.373799 0
1.429607 -9.3407402 -0.37385443 0
1.4546291 -9.3608236 -0.37888727 0
1.4746754 -9.3558979 -0.37893745 0
1.4897257 -9.3459682 -0.37898675 0
1.5147685 -9.3460455 -0.37903753 0
1.3007942 -7.9110222 -0.46513739 0
1.1365926 -6.8060136 -0.52598274 0
1.0072204 -5.9510131 -0.56663287 0
1.0172682 -5.9310803 -0.56667483 0
0.9227317 -5.2961016 -0.60215688 0
0.83814043 -4.7461233 -0.62757003 0
6.5022058 -36.168797 1.1592926 0
6.5424466 -35.993881 1.1539972 0
6.6276021 -35.943993 1.1537664 0
3.753206 -20.107721 0.29279661 0
3.8032722 -20.117809 0.29270104 0
2.6723933 -13.952346 -0.041537106 0
2.1293623 -10.977181 -0.23358628 0
1.815487 -9.247138 -0.37478116 0
1.8305435 -9.2272062 -0.37483516 0
1.5764682 -7.8421597 -0.46078125 0
1.3672266 -6.7221246 -0.52153993 0
1.2078177 -5.8621068 -0.56212187 0
1.08825 -5.2321129 -0.59754503 0
1.1082621 -5.2521896 -0.60255826 0
1.1133083 -5.2372484 -0.59758675 0
1.1283429 -5.2323179 -0.59761691 0
1.0237068 -4.697331 -0.62796795 0
1.0337329 -4.7023973 -0.62798309 0
1.0437658 -4.6974635 -0.62800646 0
1.0537987 -4.6925297 -0.62802958 0
1.0638397 -4.6825919 -0.62305665 0
1.1885525 -5.1977134 -0.59776926 0
1.3482076 -5.8278465 -0.55742586 0
1.5527412 -6.6480069 -0.51697624 0
1.8321017 -7.7632036 -0.46136674 0
1.8521338 -7.7732739 -0.46139529 0
1.8621851 -7.7533379 -0.46143803 0
1.8822204 -7.7584081 -0.46147022 0
1.9022589 -7.7584782 -0.46150616 0
1.91731 -7.7385454 -0.46155289 0
1.9323485 -7.7386122 -0.46158382 0
1.9473932 -7.7286782 -0.46162233 0
1.9624376 -7.7187448 -0.46166053 0
1.982476 -7.7188144 -0.46169546 0
1.9975185 -7.7138824 -0.46173003 0
2.3668075 -9.0590992 -0.37106296 0
2.8259585 -10.714333 -0.23025051 0
3.629374 -13.654739 -0.043792754 0
3.6594324 -13.649812 -0.043855131 0
3.6894937 -13.639883 -0.043920875 0
2.9111726 -10.669604 -0.23045579 0
2.9412134 -10.679677 -0.23049846 0
2.9662659 -10.669747 -0.23055115 0
2.9863214 -10.654814 -0.23060283 0
2.5372372 -8.9747047 -0.37145117 0
2.5572848 -8.9647722 -0.37149438 0
2.5823216 -8.974843 -0.37152776 0
2.5923853 -8.9449015 -0.36657628 0
2.6124229 -8.944972 -0.37161174 0
2.6274831 -8.9200325 -0.36666033 0
2.6525249 -8.9201021 -0.36669949 0
2.6675751 -8.9051657 -0.36674055 0
2.6876197 -8.9002323 -0.36677852 0
2.702667 -8.890295 -0.36681572 0
2.7227139 -8.8803625 -0.3668566 0
2.7427611 -8.8704281 -0.36689731 0
2.7578166 -8.8454905 -0.36694387 0
2.7778552 -8.8505564 -0.36697397 0
2.7979002 -8.845624 -0.36701098 0
2.8129497 -8.8306875 -0.36705008 0
2.8329966 -8.8207521 -0.36708954 0
2.8530459 -8.8058176 -0.36713198 0
2.8730903 -8.8008833 -0.36716762 0
2.4587631 -7.4807734 -0.45271912 0
2.1243176 -6.4156895 -0.50816131 0
1.8747376 -5.6106439 -0.55349684 0
1.7000326 -5.0456357 -0.5937326 0
1.5353121 -4.5256243 -0.61894476 0
11.94623 -34.869946 1.1472319 0
6.6136637 -19.157812 0.28635442 0
4.6214519 -13.277054 -0.040845215 0
3.652801 -10.406737 -0.23192164 0
3.0785916 -8.7165842 -0.36255291 0
2.6192396 -7.3614621 -0.44805673 0
2.2797239 -6.3613868 -0.50842679 0
2.0051239 -5.551333 -0.54872489 0
1.8153946 -4.9913244 -0.59393108 0
1.6456499 -4.4863143 -0.61911631 0
7.0394449 -19.013464 0.28558016 0
4.912044 -13.167694 -0.041368425 0
3.8782997 -10.32237 -0.23231849 0
3.9033477 -10.317432 -0.23235634 0
3.918407 -10.287492 -0.23240134 0
3.9484456 -10.302558 -0.23243067 0
3.9635048 -10.272615 -0.23247507 0
3.9885523 -10.267678 -0.23251179 0
4.0086021 -10.25774 -0.23254773 0
4.0336518 -10.247802 -0.23258665 0
4.0537038 -10.232862 -0.23262474 0
4.0787516 -10.227924 -0.23266038 0
4.0988011 -10.217985 -0.23269525 0
4.1188507 -10.208044 -0.23272982 0
5.27282 -12.993492 -0.042003363 0
7.6706095 -18.779392 0.28450689 0
5.3329329 -12.978614 -0.042092174 0
4.2090473 -10.173288 -0.23286948 0
4.2340961 -10.163349 -0.23290572 0
4.2641392 -10.168412 -0.23293701 0
3.5897877 -8.5082512 -0.36338434 0
3.6048341 -8.49331 -0.36341313 0
3.6248746 -8.4933701 -0.36343721 0
3.649915 -8.493432 -0.36346397 0
3.6599672 -8.4634886 -0.36349645 0
3.6800094 -8.4585485 -0.36352232 0
3.6900601 -8.4336052 -0.36355206 0
3.7150967 -8.4436674 -0.3635731 0
4.4645762 -10.088946 -0.23322895 0
8.2466869 -18.530199 0.28360206 0
12.220719 -27.354797 4.4954758 0
1.9566262 -4.3482757 -0.61953795 0
1.9666526 -4.3533363 -0.61954498 0
1.9766784 -4.3533988 -0.62455428 0
1.981715 -4.3384542 -0.61956751 0
1.9917451 -4.3335147 -0.61957872 0
2.0017753 -4.3285747 -0.61958981 0
2.0167999 -4.3386364 -0.61959684 0
2.0168371 -4.313693 -0.61961126 0
2.0418565 -4.3337612 -0.62461889 0
8.6525526 -18.235781 0.28294364 0
6.0543642 -12.685063 -0.043120354 0
4.7752528 -9.9497528 -0.23364457 0
4.0207791 -8.3296013 -0.36395624 0
4.0308299 -8.2996578 -0.36398342 0
4.835403 -9.8999214 -0.23373172 0
6.1996441 -12.630341 -0.043298244 0
8.9130878 -18.066135 0.28256503 0
7.8140879 -15.750661 0.69214249 0
7.924293 -15.895576 1.1121269 0
2.1321962 -4.2544074 -0.61972916 0
2.3720939 -4.7145281 -0.58966434 0
2.64698 -5.2396522 -0.54459178 0
3.0467961 -5.9948149 -0.50449002 0
3.516588 -6.8799877 -0.43937275 0
4.211257 -8.2052221 -0.36419395 0
5.0558777 -9.7954769 -0.23398718 0
6.4901958 -12.520882 -0.048627406 0
6.5152569 -12.495932 -0.043661654 0
6.5503063 -12.495988 -0.048690856 0
8.5794115 -16.286497 0.28177944 0
7.8700337 -14.8662 0.67155933 0
7.9852109 -15.016138 1.0765465 0
2.2525446 -4.2151136 -0.61982381 0
2.4974649 -4.650228 -0.58977699 0
2.7823727 -5.1603456 -0.54472184 0
3.207212 -5.9205031 -0.50964034 0
3.7070351 -6.8006678 -0.44455066 0
4.4217639 -8.0808821 -0.36441627 0
5.3064427 -9.6511202 -0.23425695 0
6.8308597 -12.356502 -0.048983127 0
8.9650698 -16.146984 0.28139645 0
8.1556568 -14.6117 0.67120224 0
8.2158442 -14.651637 1.0661776 0
2.342838 -4.1606927 -0.61989284 0
2.6027689 -4.6008024 -0.5898546 0
2.9026904 -5.1109161 -0.54481089 0
3.3425555 -5.8560648 -0.5097481 0
3.8574059 -6.7262197 -0.44467667 0
4.6021757 -7.9864202 -0.36457381 0
5.5219035 -9.536644 -0.23445085 0
7.1114016 -12.221998 -0.049237192 0
8.6209965 -14.752286 0.28095382 0
8.6461849 -14.722225 0.67592418 0
8.6313839 -14.627157 1.0708904 0
2.4281275 -4.1062641 -0.61994755 0
2.7030706 -4.54637 -0.58991861 0
3.0280035 -5.0614815 -0.54988635 0
3.4728961 -5.7866168 -0.5098381 0
4.0077744 -6.6417613 -0.44478551 0
4.7825828 -7.8919482 -0.36470756 0
5.7373571 -9.4221535 -0.23461607 0
7.3969355 -12.092477 -0.049455404 0
9.0365782 -14.707754 0.28069252 0
9.0617495 -14.677705 0.68066728 0
9.0869169 -14.652657 1.0856436 0
2.5134158 -4.041831 -0.61999249 0
2.8033714 -4.4819317 -0.5899713 0
3.1433177 -5.002037 -0.54994619 0
3.6032343 -5.712162 -0.50991189 0
4.1631351 -6.5722957 -0.44487217 0
4.9529858 -7.7824621 -0.36481795 0
5.9528027 -9.3126488 -0.23475155 0
7.6874599 -11.967939 -0.049637496 0
11.031774 -17.088446 0.28058043 0
9.5372972 -14.718168 0.68545473 0
9.5574493 -14.678133 1.0954336 0
2.6036983 -3.9873934 -0.62002385 0
2.8986681 -4.4174862 -0.59000862 0
3.2536299 -4.9325843 -0.54999149 0
3.7335672 -5.6376987 -0.5099678 0
4.3134947 -6.48282 -0.44494149 0
5.1233821 -7.6729665 -0.36490425 0
6.1682429 -9.1931314 -0.23486039 0
7.9729767 -11.833382 -0.049783677 0
11.47244 -16.943813 0.28036106 0
10.012853 -14.723601 0.69527745 0
10.042983 -14.70358 1.1102622 0
2.6939774 -3.9329495 -0.62004256 0
3.0089571 -4.3730373 -0.59503186 0
3.3689344 -4.8781261 -0.55501997 0
3.858896 -5.5582261 -0.51000583 0
4.4538484 -6.3883328 -0.44498911 0
5.303771 -7.5734606 -0.36496654 0
6.3986731 -9.0936031 -0.23993978 0
8.2634859 -11.698807 -0.054894 0
11.868103 -16.73415 0.28019181 0
10.523402 -14.764008 0.70014292 0
10.568512 -14.764 1.1251322 0
2.789252 -3.8834999 -0.62004888 0
3.1142454 -4.3185802 -0.59504187 0
3.4742398 -4.7936583 -0.55003536 0
3.9792204 -5.4737458 -0.5100261 0
4.6091952 -6.3088388 -0.45001671 0
5.4741545 -7.4589429 -0.36500475 0
6.6140981 -8.9790573 -0.23999003 0
8.5489874 -11.549213 -0.054967821 0
12.363746 -16.639465 0.28007501 0
11.043957 -14.794382 0.71005052 0
11.104046 -14.809389 1.145044 0
2.869525 -3.8140442 -0.62004268 0
3.2045305 -4.2441139 -0.59503806 0
3.5995362 -4.744184 -0.5550338 0
4.1095386 -5.3942585 -0.51502895 0
4.7645373 -6.2243338 -0.4500241 0
5.6495295 -7.3594141 -0.37001792 0
6.8395166 -8.8644981 -0.24001208 0
8.8344793 -11.399601 -0.055003762 0
11.549436 -14.84971 0.28000566 0
11.564511 -14.804726 0.71500295 0
11.679582 -14.884747 1.1600009 0
2.9647932 -3.7645841 -0.62002361 0
3.3048115 -4.1846437 -0.59502017 0
3.7148309 -4.6797028 -0.56001687 0
4.2298517 -5.309761 -0.51501369 0
4.9098735 -6.1348186 -0.4550105 0
5.8348985 -7.2598743 -0.37000731 0
5.8549352 -7.2499194 -0.37000492 0
4.9599743 -6.1099629 -0.45500246 0
4.3000002 -5.2750001 -0.51499999 0
